ply
format ascii 1.0
element vertex 133
property float32 x
property float32 y
property float32 z
property float32 I
end_header
-26.6089 -7.2904 -2.6487 0.8951
-27.8593 -5.4886 -4.6777 0.8913
-28.3163 -4.5136 -6.0611 0.8894
-28.1459 -4.4865 -6.6984 0.8895
-45.9902 -2.2425 -11.9219 0.8267
-34.3568 -29.2221 -12.7685 0.8290
-30.7109 -28.1129 -11.7867 0.8411
-42.5237 -13.3346 -14.8138 0.8287
-40.3015 -14.2705 -14.2115 0.8351
-38.0849 -15.0690 -13.6146 0.8414
-32.9667 -17.4199 -12.3941 0.8546
-30.7630 -17.7187 -11.8007 0.8610
-22.7983 -18.0014 -9.6559 0.8848
-19.3899 -17.7496 -8.7380 0.8951
-17.8295 -17.5575 -8.3178 0.8999
-38.2517 -0.4695 -13.6801 0.8500
-38.0289 -1.8543 -13.6156 0.8507
-36.1947 -5.7695 -13.1069 0.8558
-34.2471 -8.0538 -12.5811 0.8612
-33.0917 -9.0666 -12.2700 0.8644
-31.8398 -9.9843 -11.9328 0.8678
-27.5179 -13.2813 -10.9268 0.8783
-24.5236 -14.1249 -10.1205 0.8867
-23.0550 -14.4227 -9.7250 0.8909
-21.6187 -14.6466 -9.3382 0.8950
-20.2218 -14.8034 -8.9620 0.8990
-18.8700 -14.8996 -8.5980 0.9029
-17.5672 -14.9417 -8.2472 0.9067
-15.1182 -14.8876 -7.5877 0.9138
-29.4733 -0.3617 -11.2956 0.8814
-29.3634 -1.4318 -11.2660 0.8817
-29.1244 -2.4866 -11.2016 0.8823
-27.6904 -5.4553 -10.8154 0.8861
-27.9207 -6.5660 -10.9916 0.8844
-27.4618 -7.5240 -10.9117 0.8852
-26.5743 -8.3332 -10.6727 0.8875
-25.6225 -9.0728 -10.4164 0.8901
-24.6194 -9.7411 -10.1463 0.8928
-23.5776 -10.3379 -9.8657 0.8956
-22.5089 -10.8638 -9.5779 0.8985
-19.2436 -12.0384 -8.6986 0.9073
-18.1641 -12.3062 -8.4079 0.9103
-17.1006 -12.5185 -8.1215 0.9132
-16.0580 -12.6793 -7.8408 0.9161
-14.0522 -12.8635 -7.3006 0.9216
-23.9879 -0.2944 -9.8184 0.9015
-23.9101 -1.1659 -9.7975 0.9017
-23.7840 -4.6857 -9.9213 0.9005
-22.0283 -6.9076 -9.4485 0.9050
-17.3211 -9.9765 -8.1809 0.9172
-16.4729 -10.3051 -7.9525 0.9194
-14.7796 -10.8194 -7.4965 0.9239
-12.3139 -11.2723 -6.8325 0.9304
-11.5252 -11.3494 -6.6201 0.9325
-20.4414 -3.2584 -9.0212 0.9136
-19.7096 -4.6351 -8.8241 0.9154
-19.2592 -5.2767 -8.7028 0.9166
-18.7595 -5.8826 -8.5683 0.9178
-18.2163 -6.4503 -8.4220 0.9191
-17.0226 -7.4638 -8.1005 0.9221
-16.3838 -7.9076 -7.9285 0.9237
-15.7247 -8.3091 -7.7510 0.9253
-14.3660 -8.9871 -7.3851 0.9287
-13.6760 -9.2655 -7.1993 0.9305
-12.9845 -9.5053 -7.0131 0.9322
-11.6114 -9.8761 -6.6433 0.9357
-10.2712 -10.1145 -6.2824 0.9390
-18.1610 -0.2229 -8.4071 0.9231
-17.8467 -2.1813 -8.3225 0.9238
-17.6320 -2.8106 -8.2646 0.9243
-17.0520 -4.0101 -8.1085 0.9257
-16.6933 -4.5737 -8.0119 0.9265
-15.8575 -5.6151 -7.7868 0.9285
-14.3714 -6.9363 -7.3866 0.9321
-13.2756 -7.6464 -7.0915 0.9347
-12.1332 -8.2202 -6.7839 0.9374
-9.8158 -8.9854 -6.1598 0.9430
-9.2453 -9.1043 -6.0062 0.9444
-15.8924 -0.1950 -7.7962 0.9316
-15.7678 -1.3462 -7.7626 0.9319
-15.4622 -2.4647 -7.6803 0.9326
-15.2453 -3.0035 -7.6219 0.9331
-14.9884 -3.5248 -7.5527 0.9337
-14.6943 -4.0260 -7.4735 0.9344
-14.3657 -4.5048 -7.3850 0.9351
-14.0057 -4.9594 -7.2881 0.9359
-13.2044 -5.7896 -7.0723 0.9378
-11.8488 -6.8246 -6.7073 0.9409
-10.8799 -7.3712 -6.4464 0.9431
-10.3847 -7.6021 -6.3130 0.9443
-9.8858 -7.8058 -6.1787 0.9454
-9.3857 -7.9830 -6.0440 0.9466
-14.0926 -0.1730 -7.3115 0.9385
-13.9890 -1.1944 -7.2836 0.9387
-13.8800 -1.6965 -7.2543 0.9389
-13.7343 -2.1893 -7.2150 0.9393
-13.3382 -3.1367 -7.1084 0.9401
-13.0916 -3.5869 -7.0419 0.9407
-12.1838 -4.8208 -6.7975 0.9427
-11.0769 -5.8532 -6.4994 0.9451
-10.6759 -6.1490 -6.3914 0.9460
-10.2630 -6.4203 -6.2802 0.9469
-9.4115 -6.8897 -6.0509 0.9488
-8.5401 -7.2638 -5.8163 0.9507
-8.1020 -7.4167 -5.6983 0.9517
-12.6286 -0.1550 -6.9173 0.9440
-12.4483 -1.5215 -6.8687 0.9444
-12.3244 -1.9645 -6.8354 0.9447
-12.1703 -2.3977 -6.7938 0.9450
-11.7767 -3.2266 -6.6879 0.9458
-10.9984 -4.3518 -6.4783 0.9475
-10.6967 -4.6901 -6.3970 0.9481
-10.0421 -5.3063 -6.2207 0.9495
-9.6935 -5.5833 -6.1269 0.9503
-9.3336 -5.8389 -6.0300 0.9510
-8.5876 -6.2866 -5.8291 0.9526
-7.8191 -6.6505 -5.6221 0.9543
-7.0415 -6.9341 -5.4127 0.9559
-11.3896 -0.5554 -6.5836 0.9487
-11.3377 -0.9680 -6.5696 0.9488
-11.2580 -1.3760 -6.5482 0.9490
-11.1511 -1.7775 -6.5194 0.9492
-10.8598 -2.5539 -6.4409 0.9498
-10.6775 -2.9254 -6.3919 0.9502
-10.4726 -3.2840 -6.3367 0.9506
-10.2466 -3.6283 -6.2758 0.9510
-10.0011 -3.9571 -6.2097 0.9515
-9.7378 -4.2696 -6.1388 0.9521
-8.8581 -5.1021 -5.9019 0.9539
-8.5409 -5.3430 -5.8165 0.9545
-8.2145 -5.5653 -5.7286 0.9552
-6.8490 -6.2696 -5.3609 0.9580
-6.5000 -6.4008 -5.2669 0.9587
