ply
format ascii 1.0
element vertex 205
property float32 x
property float32 y
property float32 z
property float32 I
end_header
-15.0162 30.0695 1.3253 0.8741
-20.9165 41.8845 -0.2636 0.8292
-20.6952 29.7423 -0.2040 0.8651
-21.8817 29.1390 -0.2052 0.8644
-24.7135 38.4106 -1.2861 0.8330
-24.4057 35.0748 -1.2032 0.8428
-24.1415 32.1483 -1.1320 0.8514
-23.9127 29.5530 -1.0704 0.8589
-25.3977 29.1637 -1.0890 0.8566
-28.4577 35.1701 -2.2944 0.8343
-27.9536 32.0987 -2.1586 0.8433
-33.1359 35.3789 -3.5542 0.8233
-32.3524 32.1290 -3.3432 0.8329
-31.2696 28.8831 -3.1212 0.8431
-33.6609 28.9065 -3.2533 0.8370
-33.6640 28.9091 -4.2601 0.8367
-9.8807 14.2001 -2.0549 0.9327
-33.6671 28.9118 -5.2714 0.8363
-36.2742 28.9376 -5.5120 0.8295
-39.0438 28.8988 -5.7701 0.8223
-40.4774 27.7507 -5.8296 0.8206
-29.2111 29.0094 -5.8331 0.8468
-33.6702 28.9145 -6.2884 0.8359
-36.2777 28.9404 -6.5754 0.8290
-38.7592 28.6881 -6.8324 0.8230
-38.8180 26.6130 -6.6686 0.8268
-41.7918 26.4814 -7.0101 0.8188
-31.2807 28.8933 -7.0151 0.8415
-33.6734 28.9172 -7.3121 0.8353
-38.4770 28.4792 -7.8861 0.8236
-38.5421 26.4239 -7.6983 0.8274
-31.2835 28.8959 -8.0046 0.8409
-33.6765 28.9199 -8.3436 0.8347
-36.2848 28.9460 -8.7244 0.8279
-38.1967 28.2718 -8.9322 0.8241
-38.2680 26.2360 -8.7210 0.8279
-39.2907 22.9476 -8.5524 0.8309
-20.1224 36.8913 -8.8827 0.8421
-23.9237 40.3179 -9.9098 0.8256
-31.2863 28.8985 -9.0028 0.8402
-33.6797 28.9226 -9.3840 0.8340
-36.2884 28.9489 -9.8124 0.8271
-37.9182 28.0657 -9.9718 0.8246
-38.0662 24.1207 -9.5258 0.8317
-40.4046 21.6769 -9.6922 0.8291
-18.8139 8.4026 -4.3555 0.9192
-12.0932 24.2162 -6.3616 0.8947
-15.6161 28.6296 -7.6645 0.8746
-18.0974 30.4991 -8.3349 0.8644
-20.9857 32.6166 -9.1153 0.8527
-29.0796 28.8788 -9.6320 0.8450
-33.6829 28.9254 -10.4347 0.8332
-36.2920 28.9518 -10.9110 0.8263
-37.6411 27.8605 -11.0062 0.8250
-37.7243 25.8632 -10.7497 0.8287
-37.8004 23.9523 -10.5173 0.8320
-37.8699 22.1178 -10.3071 0.8351
-37.9336 20.3512 -10.1173 0.8379
-9.1785 18.3796 -5.3192 0.9186
-12.7351 23.3478 -6.8860 0.8959
-14.5237 24.4765 -7.3691 0.8891
-16.2557 23.3620 -7.3691 0.8891
-24.3548 30.0994 -10.0249 0.8522
-31.7238 33.8712 -12.0157 0.8255
-32.7741 28.1449 -11.1854 0.8365
-34.9014 25.8327 -11.2426 0.8358
-37.4542 25.6780 -11.7578 0.8289
-37.6099 21.9659 -11.2771 0.8353
-35.2348 17.2917 -10.1623 0.8503
-42.1215 18.8121 -11.9443 0.8265
-9.4792 18.9821 -6.0065 0.9156
-9.4156 15.8678 -5.2234 0.9262
-9.6923 15.0641 -5.0710 0.9282
-16.2885 21.6907 -7.6791 0.8934
-19.1508 23.6679 -8.6189 0.8811
-29.8959 27.6142 -11.5212 0.8443
-33.4437 28.7199 -12.4796 0.8326
-27.1061 21.6238 -9.8162 0.8658
-37.0901 27.4527 -13.0632 0.8254
-37.3503 21.8143 -12.2449 0.8354
-37.4884 18.3977 -11.8218 0.8406
-9.1800 16.8300 -5.8966 0.9229
-11.3348 15.0941 -5.8059 0.9240
-12.1086 14.9647 -5.9209 0.9226
-17.3835 19.9612 -8.1415 0.8951
-19.1620 20.4591 -8.6219 0.8893
-16.6697 16.5546 -7.2260 0.9064
-25.4659 21.8690 -10.3246 0.8689
-27.2532 21.7411 -10.7230 0.8642
-30.6158 22.6606 -11.7156 0.8527
-32.3422 18.8893 -11.5201 0.8549
-37.1674 19.9401 -12.9732 0.8382
-37.2370 18.2743 -12.7582 0.8406
-7.1173 14.2521 -5.2954 0.9351
-9.8647 15.3321 -6.0602 0.9260
-10.9150 15.6865 -6.3524 0.9226
-13.2322 16.3534 -6.9926 0.9151
-15.8193 16.8901 -7.6924 0.9071
-18.7528 17.3216 -8.4858 0.8980
-20.3584 17.4829 -8.9201 0.8930
-22.0601 17.5983 -9.3804 0.8879
-25.7541 17.6566 -10.3795 0.8767
-18.7307 11.8687 -7.3709 0.9108
-29.8213 17.4170 -11.4796 0.8645
-31.9793 17.1568 -12.0633 0.8582
-34.0656 16.7180 -12.6137 0.8522
-9.4579 13.5929 -5.9218 0.9321
-10.3528 13.7864 -6.1655 0.9294
-11.2963 13.9607 -6.4221 0.9265
-13.3348 14.2374 -6.9758 0.9205
-14.4312 14.3315 -7.2732 0.9172
-15.5788 14.3899 -7.5840 0.9138
-16.7773 14.4074 -7.9083 0.9103
-19.5658 11.4273 -8.1028 0.9082
-26.3243 12.9188 -10.4863 0.8829
-27.7599 12.3980 -10.8722 0.8788
-7.6587 11.9034 -5.4242 0.9412
-9.9061 12.2427 -6.0351 0.9348
-12.4531 12.3671 -6.7257 0.9276
-13.3663 12.3461 -6.9729 0.9250
-16.2728 12.0445 -7.7584 0.9169
-17.2869 11.8515 -8.0320 0.9141
-19.9227 8.8978 -8.3616 0.9108
-5.7373 10.5184 -4.9037 0.9495
-6.3046 10.6249 -5.0564 0.9480
-7.5090 10.7917 -5.3808 0.9448
-8.1464 10.8483 -5.5524 0.9431
-8.8070 10.8843 -5.7303 0.9413
-10.2001 10.8905 -6.1069 0.9375
-10.9300 10.8545 -6.3045 0.9356
-14.0224 10.3789 -7.1401 0.9274
-16.4387 9.6010 -7.7914 0.9210
-17.2412 9.2498 -8.0078 0.9189
-17.6259 8.6500 -8.0357 0.9186
-18.7992 8.3961 -8.4266 0.9149
-4.7561 9.5238 -4.6394 0.9546
-5.7438 9.6798 -4.9054 0.9521
-6.2643 9.7361 -5.0456 0.9507
-7.3576 9.7979 -5.3400 0.9479
-8.5176 9.7807 -5.6524 0.9450
-9.1206 9.7380 -5.8148 0.9434
-9.7374 9.6702 -5.9809 0.9419
-10.3665 9.5752 -6.1503 0.9403
-11.0058 9.4513 -6.3224 0.9387
-11.6534 9.2964 -6.4968 0.9370
-14.2671 8.3326 -7.2007 0.9304
-14.9085 7.9983 -7.3734 0.9288
-16.1461 7.2111 -7.7067 0.9257
-4.3803 8.7713 -4.5382 0.9577
-8.2351 8.7926 -5.5763 0.9483
-8.7677 8.7072 -5.7197 0.9470
-9.8538 8.4620 -6.0122 0.9444
-10.4035 8.2993 -6.1602 0.9430
-10.9547 8.1083 -6.3087 0.9417
-12.0513 7.6363 -6.6040 0.9391
-13.1197 7.0386 -6.8917 0.9365
-4.0532 8.1165 -4.4502 0.9604
-4.8539 8.1801 -4.6658 0.9585
-5.2704 8.1914 -4.7779 0.9575
-5.6971 8.1877 -4.8929 0.9565
-6.1335 8.1678 -5.0104 0.9555
-6.5788 8.1305 -5.1303 0.9545
-8.4290 7.7857 -5.6285 0.9502
-9.8500 7.2906 -6.0112 0.9469
-10.3203 7.0755 -6.1378 0.9458
-10.7851 6.8340 -6.2630 0.9447
-11.2418 6.5657 -6.3860 0.9436
-11.6877 6.2704 -6.5061 0.9426
-12.1200 5.9479 -6.6225 0.9416
-4.1256 7.5637 -4.4697 0.9619
-4.4942 7.5740 -4.5689 0.9611
-6.0467 7.4730 -4.9870 0.9576
-6.4510 7.4075 -5.0959 0.9567
-6.8599 7.3242 -5.2060 0.9558
-7.6869 7.1002 -5.4287 0.9539
-8.5172 6.7945 -5.6523 0.9521
-8.9294 6.6092 -5.7633 0.9512
-9.3374 6.4016 -5.8731 0.9503
-9.7390 6.1711 -5.9813 0.9494
-10.1321 5.9176 -6.0871 0.9485
-10.5145 5.6409 -6.1901 0.9477
-10.8838 5.3413 -6.2896 0.9468
-11.2376 5.0189 -6.3849 0.9460
-3.5110 7.0306 -4.3041 0.9648
-4.1774 7.0401 -4.4836 0.9634
-4.5207 7.0263 -4.5761 0.9626
-5.5844 6.9016 -4.8625 0.9603
-5.9478 6.8298 -4.9604 0.9595
-6.3142 6.7416 -5.0590 0.9587
-7.0515 6.5133 -5.2576 0.9572
-7.4200 6.3719 -5.3568 0.9564
-7.7866 6.2117 -5.4555 0.9556
-9.5347 5.1153 -5.9263 0.9519
-10.1607 4.5379 -6.0949 0.9505
-3.8959 6.5657 -4.4078 0.9654
-4.2102 6.5437 -4.4924 0.9647
-4.5292 6.5092 -4.5783 0.9640
-4.8522 6.4616 -4.6653 0.9634
-5.1786 6.4001 -4.7532 0.9627
-5.5075 6.3242 -4.8418 0.9620
-5.8382 6.2334 -4.9308 0.9613
-6.1696 6.1269 -5.0201 0.9606
-7.7979 5.3461 -5.4586 0.9573
-8.1086 5.1380 -5.5423 0.9566
-9.5986 4.2869 -6.0693 0.9526
