ply
format ascii 1.0
element vertex 336
property float32 x
property float32 y
property float32 z
property float32 I
end_header
28.9909 13.0573 5.6064 0.8788
38.4247 24.4055 8.0264 0.8312
33.2256 32.8616 8.2400 0.8271
22.5864 34.7100 7.3020 0.8452
20.8397 34.6708 7.1328 0.8485
29.2499 13.1740 4.9144 0.8783
26.7176 13.1991 4.5652 0.8864
37.2947 23.6878 6.7684 0.8363
34.5000 23.6807 6.4105 0.8442
32.2536 23.8745 6.1474 0.8501
30.7216 24.4836 6.0181 0.8530
26.7627 32.8329 6.4891 0.8425
25.0109 33.0220 6.3460 0.8457
26.7211 13.2008 3.8811 0.8867
24.6878 13.3120 3.6524 0.8930
22.5859 13.2394 3.4092 0.8998
20.8677 13.2542 3.2192 0.9051
29.7473 23.7071 4.9534 0.8578
27.6201 23.6707 4.7368 0.8635
24.8721 24.5997 4.5554 0.8684
23.0258 32.7667 5.2151 0.8508
22.1665 9.9837 2.6106 0.9068
22.4630 11.0972 2.6904 0.9041
22.8026 12.2955 2.7819 0.9010
17.7128 13.1112 2.3664 0.9152
16.5363 13.1786 2.2706 0.9185
26.7809 22.9516 3.7874 0.8677
26.0194 23.9602 3.7982 0.8674
23.9680 23.7054 3.6199 0.8732
19.4013 10.4614 1.8659 0.9153
19.8730 12.6224 1.9930 0.9098
19.4613 13.3581 1.9982 0.9096
17.7145 13.1125 1.8657 0.9153
16.7625 13.3589 1.8145 0.9176
15.9753 13.6910 1.7810 0.9190
13.3686 13.2221 1.5917 0.9273
16.2466 18.5401 2.0868 0.9058
9.4784 13.4881 1.3955 0.9360
16.6865 7.5155 1.1349 0.9293
17.0135 9.9729 1.2229 0.9240
17.4803 12.9391 1.3486 0.9165
16.7464 13.3461 1.3279 0.9178
15.5481 13.3249 1.2698 0.9212
14.4631 13.3184 1.2192 0.9242
13.4734 13.3259 1.1751 0.9269
11.7663 13.4273 1.1071 0.9309
18.1739 23.9951 1.8666 0.8864
16.7373 23.8179 1.8052 0.8899
15.6359 24.0286 1.7777 0.8915
15.1954 25.2802 1.8291 0.8885
15.2441 27.5404 1.9520 0.8815
14.9612 8.0672 0.6702 0.9342
15.0219 8.8055 0.6866 0.9327
15.0898 9.5843 0.7049 0.9309
15.2506 11.2886 0.7482 0.9269
15.3455 12.2296 0.7737 0.9245
15.4521 13.2426 0.8024 0.9218
13.4745 13.3269 0.7473 0.9269
12.8265 13.6246 0.7378 0.9278
11.7939 13.4588 0.7056 0.9309
10.7885 13.2355 0.6733 0.9339
10.0529 13.2729 0.6565 0.9355
9.7721 13.9060 0.6702 0.9342
15.6319 24.0225 1.1301 0.8916
14.7053 24.4649 1.1255 0.8920
14.6874 26.5347 1.1959 0.8857
14.0231 6.3159 0.2598 0.9403
13.7979 7.4400 0.2648 0.9392
13.4502 7.8842 0.2634 0.9395
13.4993 9.2659 0.2766 0.9366
13.5954 11.6514 0.3024 0.9309
11.8181 13.4864 0.3029 0.9308
10.0536 13.2738 0.2813 0.9356
9.7661 13.8975 0.2869 0.9343
9.7868 17.6812 0.3414 0.9223
12.7657 5.7496 -0.0788 0.9455
12.7608 6.3041 -0.0801 0.9447
12.7554 6.8779 -0.0816 0.9437
12.6783 7.4318 -0.0827 0.9429
12.1475 9.6810 -0.0875 0.9398
11.7141 13.3678 -0.1001 0.9314
10.0807 16.7711 -0.1102 0.9247
11.6945 5.7773 -0.3673 0.9491
11.6467 6.8271 -0.3801 0.9474
11.5967 7.3657 -0.3868 0.9465
11.0685 7.5974 -0.3780 0.9477
11.0365 8.1693 -0.3866 0.9465
11.0013 8.7675 -0.3961 0.9453
10.9201 10.0558 -0.4180 0.9423
10.8732 10.7541 -0.4306 0.9406
10.7013 13.1284 -0.4769 0.9345
10.0550 13.2756 -0.4689 0.9355
10.1623 14.4613 -0.4977 0.9317
10.2048 15.6823 -0.5268 0.9279
10.2032 16.9749 -0.5577 0.9238
10.3705 20.4227 -0.6450 0.9124
10.8229 4.8746 -0.6020 0.9536
10.7916 5.3313 -0.6104 0.9529
10.7568 5.8002 -0.6198 0.9522
10.6764 6.7812 -0.6414 0.9506
10.0517 8.0107 -0.6518 0.9498
9.8605 9.7524 -0.7033 0.9460
9.6083 11.7876 -0.7712 0.9409
9.5069 12.5520 -0.7985 0.9389
9.3950 13.3694 -0.8287 0.9367
9.2529 15.3937 -0.9108 0.9306
9.1176 16.4722 -0.9548 0.9274
9.0048 17.7287 -1.0078 0.9234
10.0164 4.9483 -0.8192 0.9562
9.9257 5.8182 -0.8436 0.9549
9.7428 7.2117 -0.8888 0.9525
9.3497 7.4512 -0.8766 0.9532
9.1029 8.3825 -0.9073 0.9516
8.0405 14.5262 -1.2174 0.9356
9.2400 5.4163 -1.0283 0.9579
9.0460 6.6959 -1.0805 0.9558
8.9621 7.1424 -1.1002 0.9550
8.6845 7.4427 -1.0980 0.9551
8.3069 8.2159 -1.1217 0.9541
8.0939 9.2365 -1.1790 0.9518
7.8419 10.3536 -1.2469 0.9491
7.5423 11.5907 -1.3276 0.9459
6.9856 13.7566 -1.4812 0.9399
8.8007 3.9638 -1.1465 0.9619
8.7523 4.3238 -1.1596 0.9614
8.6989 4.6906 -1.1740 0.9610
8.6405 5.0649 -1.1897 0.9605
8.5766 5.4474 -1.2069 0.9599
8.2558 7.0753 -1.2915 0.9571
7.6970 7.6126 -1.2859 0.9573
7.5888 8.0609 -1.3151 0.9564
7.4716 8.5263 -1.3466 0.9554
7.2070 9.5154 -1.4179 0.9531
6.7191 11.1785 -1.5493 0.9488
6.3175 12.4409 -1.6574 0.9453
8.1729 4.4069 -1.3156 0.9632
8.0443 5.1093 -1.3503 0.9622
7.8921 5.8418 -1.3912 0.9611
7.8062 6.2212 -1.4143 0.9605
7.7134 6.6104 -1.4393 0.9598
7.6115 7.0091 -1.4661 0.9591
7.4882 7.4061 -1.4923 0.9583
7.0561 7.4951 -1.4585 0.9593
6.6645 8.7991 -1.5640 0.9564
6.3482 9.7557 -1.6492 0.9541
6.1704 10.2655 -1.6970 0.9528
5.9777 10.7995 -1.7489 0.9514
7.8150 3.5198 -1.4120 0.9659
7.6405 4.4787 -1.4590 0.9647
7.4148 5.4885 -1.5198 0.9633
7.1294 6.5652 -1.5966 0.9615
7.0190 6.9421 -1.6263 0.9608
6.4931 7.4098 -1.6230 0.9608
6.0428 8.5991 -1.7314 0.9583
5.8786 9.0340 -1.7756 0.9572
5.7017 9.4858 -1.8233 0.9561
5.5108 9.9561 -1.8746 0.9549
7.3423 3.6273 -1.5393 0.9672
7.2830 3.9271 -1.5552 0.9669
7.1479 4.5400 -1.5916 0.9661
7.0716 4.8539 -1.6122 0.9657
6.9891 5.1734 -1.6344 0.9652
6.9000 5.4989 -1.6584 0.9647
6.8039 5.8310 -1.6843 0.9642
6.7006 6.1703 -1.7121 0.9636
6.4701 6.8726 -1.7742 0.9623
6.3324 7.2264 -1.8060 0.9616
6.0190 7.3842 -1.7906 0.9620
5.4709 8.4075 -1.8854 0.9600
5.2964 8.8116 -1.9324 0.9590
5.1089 9.2299 -1.9829 0.9580
4.9073 9.6638 -2.0372 0.9568
6.9626 3.4396 -1.6415 0.9687
6.8373 4.0079 -1.6753 0.9681
6.7663 4.2976 -1.6944 0.9678
6.5170 5.1937 -1.7615 0.9665
6.4208 5.5026 -1.7874 0.9660
6.2064 6.1384 -1.8452 0.9649
6.0874 6.4662 -1.8772 0.9643
5.9599 6.8013 -1.9115 0.9637
5.8168 7.1361 -1.9461 0.9631
5.5690 7.3527 -1.9497 0.9630
5.2732 7.5039 -1.9387 0.9632
4.9421 8.2221 -2.0278 0.9615
4.7588 8.5975 -2.0772 0.9606
4.5625 8.9848 -2.1300 0.9596
6.6720 3.0050 -1.7198 0.9704
6.5569 3.5356 -1.7508 0.9699
6.4914 3.8051 -1.7684 0.9696
6.4203 4.0779 -1.7876 0.9692
6.3434 4.3541 -1.8083 0.9689
6.2605 4.6341 -1.8306 0.9685
6.1713 4.9182 -1.8546 0.9681
6.0754 5.2066 -1.8805 0.9677
5.9725 5.4998 -1.9082 0.9672
5.8623 5.7981 -1.9378 0.9667
5.6183 6.4115 -2.0035 0.9656
5.3353 7.0442 -2.0768 0.9643
4.4509 8.0412 -2.1601 0.9629
6.3011 3.1129 -1.8197 0.9714
6.1757 3.6200 -1.8534 0.9709
6.1048 3.8775 -1.8725 0.9706
6.0283 4.1378 -1.8931 0.9702
5.9458 4.4012 -1.9153 0.9699
5.8572 4.6679 -1.9392 0.9695
5.7621 4.9382 -1.9648 0.9691
5.6602 5.2123 -1.9923 0.9687
5.5513 5.4905 -2.0216 0.9683
5.4349 5.7731 -2.0529 0.9678
4.8841 6.9503 -2.1994 0.9655
4.7167 7.2484 -2.2391 0.9649
4.1778 7.5477 -2.2336 0.9650
3.9930 7.8633 -2.2834 0.9642
6.0653 2.7318 -1.8832 0.9727
6.0106 2.9694 -1.8979 0.9725
5.9509 3.2088 -1.9140 0.9723
5.4764 4.6933 -2.0418 0.9705
5.2685 5.2108 -2.0977 0.9697
4.7638 6.2897 -2.2336 0.9677
4.6169 6.5700 -2.2732 0.9672
5.7968 2.6108 -1.9555 0.9737
5.6834 3.0645 -1.9860 0.9733
5.5495 3.5247 -2.0221 0.9729
5.4744 3.7576 -2.0423 0.9726
5.3071 4.2295 -2.0873 0.9720
5.0100 4.9551 -2.1674 0.9709
4.8976 5.2023 -2.1976 0.9705
4.7779 5.4524 -2.2298 0.9701
4.5157 5.9621 -2.3004 0.9692
4.0591 6.7530 -2.4234 0.9676
3.6593 7.2063 -2.4859 0.9667
5.4356 2.9309 -2.0527 0.9743
5.3720 3.1490 -2.0699 0.9741
5.2292 3.5893 -2.1083 0.9736
5.0645 4.0361 -2.1527 0.9731
4.9734 4.2622 -2.1772 0.9728
4.6624 4.9525 -2.2610 0.9717
4.5453 5.1869 -2.2925 0.9713
4.4210 5.4238 -2.3260 0.9709
4.1496 5.9050 -2.3990 0.9700
3.8452 6.3971 -2.4810 0.9690
3.6796 6.6476 -2.5256 0.9685
3.5016 6.8956 -2.5707 0.9679
5.2052 2.8067 -2.1148 0.9752
5.0019 3.4333 -2.1695 0.9746
4.8399 3.8571 -2.2132 0.9741
4.4457 4.7223 -2.3193 0.9728
4.0815 5.3888 -2.4174 0.9717
3.8018 5.8425 -2.4927 0.9708
3.4895 6.3043 -2.5768 0.9699
5.0994 2.2968 -2.1433 0.9763
4.9903 2.6908 -2.1727 0.9760
4.7902 3.2880 -2.2265 0.9754
4.7133 3.4889 -2.2472 0.9752
4.6311 3.6908 -2.2694 0.9750
4.5434 3.8937 -2.2930 0.9747
4.3506 4.3029 -2.3449 0.9741
4.1334 4.7169 -2.4034 0.9735
4.0151 4.9257 -2.4353 0.9731
3.7577 5.3474 -2.5046 0.9724
3.4708 5.7744 -2.5818 0.9716
3.1519 6.2069 -2.6677 0.9706
4.8965 2.2054 -2.1979 0.9771
4.6629 2.9617 -2.2608 0.9764
4.4365 3.5356 -2.3218 0.9758
4.2590 3.9219 -2.3696 0.9753
4.1619 4.1163 -2.3957 0.9750
4.0589 4.3114 -2.4235 0.9747
3.8345 4.7042 -2.4839 0.9741
3.5841 5.1004 -2.5513 0.9734
3.3058 5.4998 -2.6263 0.9726
3.1555 5.7008 -2.6668 0.9722
4.6552 2.2998 -2.2629 0.9776
4.6002 2.4805 -2.2777 0.9775
4.5406 2.6616 -2.2938 0.9773
4.3333 3.2075 -2.3496 0.9768
4.1701 3.5738 -2.3935 0.9763
4.0807 3.7577 -2.4176 0.9761
3.8852 4.1270 -2.4702 0.9756
3.6666 4.4982 -2.5291 0.9750
3.5480 4.6844 -2.5611 0.9747
3.4231 4.8711 -2.5947 0.9744
3.2915 5.0583 -2.6301 0.9740
3.1531 5.2458 -2.6674 0.9736
3.0076 5.4335 -2.7066 0.9733
2.8546 5.6216 -2.7478 0.9729
4.3638 2.5579 -2.3414 0.9780
4.3007 2.7316 -2.3584 0.9778
4.0833 3.2542 -2.4169 0.9772
4.0010 3.4289 -2.4391 0.9770
3.8209 3.7790 -2.4876 0.9766
3.7228 3.9544 -2.5140 0.9763
3.5098 4.3058 -2.5714 0.9758
3.3945 4.4817 -2.6024 0.9755
3.0112 5.0097 -2.7056 0.9746
4.1969 2.4601 -2.3863 0.9786
4.0689 2.7928 -2.4208 0.9783
3.8419 3.2925 -2.4819 0.9777
3.7565 3.4592 -2.5049 0.9775
3.6660 3.6259 -2.5293 0.9773
3.5704 3.7925 -2.5550 0.9771
3.3629 4.1257 -2.6109 0.9766
3.2508 4.2921 -2.6411 0.9763
3.1329 4.4582 -2.6728 0.9760
2.8790 4.7897 -2.7412 0.9754
2.7426 4.9548 -2.7779 0.9751
2.5997 5.1194 -2.8164 0.9747
4.1950 1.8894 -2.3868 0.9795
4.1472 2.0488 -2.3997 0.9794
3.7704 3.0048 -2.5012 0.9785
3.6918 3.1639 -2.5223 0.9783
3.6084 3.3229 -2.5448 0.9781
3.5202 3.4816 -2.5685 0.9779
3.4270 3.6402 -2.5936 0.9777
3.0015 4.2712 -2.7082 0.9768
2.6232 4.7392 -2.8101 0.9759
2.4850 4.8937 -2.8473 0.9756
3.8893 2.2798 -2.4692 0.9796
3.8300 2.4326 -2.4851 0.9795
3.7666 2.5854 -2.5022 0.9794
3.5498 3.0422 -2.5606 0.9789
3.3824 3.3454 -2.6056 0.9785
2.9891 3.9465 -2.7116 0.9777
2.6392 4.3907 -2.8058 0.9769
2.3777 4.6823 -2.8762 0.9763
3.8505 1.9022 -2.4796 0.9804
3.7469 2.1963 -2.5075 0.9801
3.6269 2.4895 -2.5398 0.9799
3.4901 2.7814 -2.5766 0.9796
3.4152 2.9269 -2.5968 0.9794
3.2520 3.2164 -2.6408 0.9791
3.0703 3.5038 -2.6897 0.9787
2.8694 3.7884 -2.7438 0.9783
2.7614 3.9296 -2.7729 0.9781
2.5299 4.2089 -2.8352 0.9776
2.4061 4.3470 -2.8685 0.9773
