ply
format ascii 1.0
element vertex 309
property float32 x
property float32 y
property float32 z
property float32 I
end_header
38.9912 -6.9471 6.9835 0.8514
38.5602 -5.4755 6.8674 0.8537
38.0062 -2.6849 6.7182 0.8566
37.8711 -1.3359 6.6819 0.8573
37.8265 0.0001 6.6698 0.8576
38.0062 2.6852 6.7182 0.8566
38.2342 4.0603 6.7796 0.8554
38.5603 5.4758 6.8674 0.8537
38.9913 6.9474 6.9835 0.8514
37.7626 8.1117 6.8105 0.8548
35.7515 13.1579 6.7173 0.8566
30.9322 -5.5112 4.8133 0.8806
30.6957 -4.3588 4.7496 0.8821
30.5158 -3.2404 4.7011 0.8832
30.9323 5.5115 4.8133 0.8806
30.2056 7.6118 4.7720 0.8816
30.5915 8.8671 4.8793 0.8791
31.6704 11.6559 5.1699 0.8724
32.3113 13.2032 5.3472 0.8683
26.0483 -6.5639 3.4981 0.8973
25.6643 -4.5726 3.3947 0.9002
25.3005 -0.8925 3.2967 0.9029
25.2858 0.0001 3.2927 0.9030
25.3449 1.7906 3.3087 0.9026
25.5256 3.6248 3.3573 0.9012
25.6643 4.5726 3.3947 0.9002
25.8377 5.5502 3.4414 0.8989
25.6787 7.4431 3.4815 0.8978
25.4013 8.3441 3.4817 0.8978
25.7309 9.4699 3.5704 0.8953
26.1135 10.6706 3.6735 0.8924
22.1788 -5.5888 2.4560 0.9121
21.8002 -2.3149 2.3541 0.9156
21.7549 -1.5368 2.3419 0.9160
21.7279 0.7666 2.3346 0.9163
21.8644 3.1049 2.3714 0.9150
21.9482 3.9107 2.3940 0.9142
22.1788 5.5890 2.4560 0.9121
22.4589 7.3776 2.5385 0.9093
21.6874 7.9818 2.4815 0.9112
19.2908 7.8827 2.2378 0.9196
7.6067 -0.5374 0.6455 0.9699
7.6026 -0.2682 0.6440 0.9699
7.6067 0.5374 0.6455 0.9699
7.6132 0.8085 0.6481 0.9697
19.1334 2.7171 1.6359 0.9254
19.2466 4.1343 1.6664 0.9240
19.3223 4.8692 1.6868 0.9231
19.5157 6.4108 1.7389 0.9208
18.8855 7.7171 1.7270 0.9214
17.0452 -3.0370 1.0736 0.9330
17.0160 -2.4163 1.0658 0.9334
7.0725 -0.7510 0.4410 0.9719
7.0663 -0.2493 0.4385 0.9721
7.0725 0.7511 0.4410 0.9719
17.0160 2.4164 1.0658 0.9334
17.0452 3.0371 1.0736 0.9330
17.1764 4.9787 1.1090 0.9308
17.2360 5.6619 1.1250 0.9299
17.3044 6.3687 1.1434 0.9288
15.3809 -3.8758 0.6254 0.9385
15.3248 -2.1761 0.6103 0.9399
6.6047 -0.7013 0.2619 0.9738
6.6018 -0.2329 0.2605 0.9739
6.6014 0.0000 0.2603 0.9739
6.6018 0.2329 0.2605 0.9739
6.6028 0.4665 0.2610 0.9739
6.6047 0.7014 0.2619 0.9738
15.3248 2.1762 0.6103 0.9399
15.3586 3.2991 0.6194 0.9391
15.4072 4.4659 0.6325 0.9378
15.4377 5.0712 0.6407 0.9370
13.9615 -3.5182 0.2432 0.9440
6.1966 -0.8799 0.1057 0.9753
6.1956 -0.6579 0.1052 0.9754
6.1950 -0.2185 0.1047 0.9755
6.1952 0.0000 0.1046 0.9755
6.1950 0.2186 0.1047 0.9755
6.1951 0.4377 0.1049 0.9755
13.9470 2.4851 0.2393 0.9449
13.9937 5.1502 0.2519 0.9421
12.7850 -2.7462 -0.0736 0.9490
12.7868 -2.2782 -0.0731 0.9494
5.8512 -0.8309 -0.0333 0.9766
5.8519 -0.2064 -0.0330 0.9768
5.8520 0.0000 -0.0329 0.9769
5.8512 0.8309 -0.0333 0.9766
12.7868 2.2783 -0.0731 0.9494
12.7802 3.7044 -0.0749 0.9482
12.7738 4.7012 -0.0766 0.9470
5.5438 -0.5887 -0.1570 0.9779
5.5458 0.0000 -0.1562 0.9781
5.5449 0.3918 -0.1565 0.9780
11.7763 3.4134 -0.3452 0.9521
11.7637 3.8643 -0.3486 0.9517
11.7330 4.7944 -0.3569 0.9505
5.2639 -0.7475 -0.2696 0.9789
5.2683 0.3722 -0.2678 0.9791
5.2665 0.5593 -0.2686 0.9790
5.2605 0.9373 -0.2710 0.9788
5.0033 -1.0747 -0.3752 0.9797
5.0085 -0.8924 -0.3730 0.9798
5.0159 -0.5326 -0.3698 0.9800
5.0182 -0.3545 -0.3689 0.9800
5.0196 -0.1771 -0.3683 0.9801
5.0196 0.1771 -0.3683 0.9801
5.0182 0.3546 -0.3689 0.9800
5.0159 0.5327 -0.3698 0.9800
5.0127 0.7118 -0.3712 0.9799
10.1741 2.9490 -0.7767 0.9584
10.1496 3.3341 -0.7833 0.9581
10.1217 3.7252 -0.7908 0.9577
10.0904 4.1232 -0.7992 0.9572
4.7820 -1.0272 -0.4696 0.9805
4.7932 -0.6806 -0.4648 0.9807
4.7970 -0.5094 -0.4631 0.9808
4.7998 -0.3391 -0.4620 0.9809
4.8020 0.0000 -0.4610 0.9809
4.7932 0.6806 -0.4648 0.9807
4.7881 0.8531 -0.4669 0.9806
9.5480 2.4061 -0.9453 0.9612
9.4952 3.1191 -0.9595 0.9606
9.4633 3.4829 -0.9681 0.9603
9.4276 3.8523 -0.9777 0.9599
8.9754 -2.2617 -1.0995 0.9634
4.5785 -0.9835 -0.5563 0.9813
4.5957 -0.4880 -0.5490 0.9816
4.5988 -0.3249 -0.5476 0.9816
4.6007 -0.1623 -0.5468 0.9816
4.6013 0.0000 -0.5466 0.9816
4.5912 0.6520 -0.5509 0.9815
4.5855 0.8170 -0.5533 0.9814
8.9755 2.2618 -1.0995 0.9634
8.9178 2.9294 -1.1150 0.9629
8.8830 3.2693 -1.1244 0.9626
4.5449 -0.6454 -0.6504 0.9816
4.5435 -0.3210 -0.6454 0.9818
4.5432 -0.1603 -0.6441 0.9818
4.5432 0.1603 -0.6441 0.9818
4.5441 0.4825 -0.6475 0.9817
4.5449 0.6454 -0.6504 0.9816
4.5459 0.8100 -0.6543 0.9815
4.5472 0.9768 -0.6590 0.9814
8.4651 2.1332 -1.2369 0.9653
8.4367 2.4454 -1.2446 0.9651
8.4040 2.7607 -1.2534 0.9649
8.0070 -2.0177 -1.3603 0.9671
4.5774 -0.9832 -0.7713 0.9812
4.5747 -0.6496 -0.7612 0.9814
4.5738 -0.4857 -0.7577 0.9815
4.5726 0.0000 -0.7533 0.9816
4.5759 0.8153 -0.7657 0.9813
7.9435 2.6094 -1.3774 0.9667
7.8625 3.2128 -1.3992 0.9662
4.6066 -0.8208 -0.8795 0.9811
4.6041 -0.4889 -0.8703 0.9813
4.6029 -0.1624 -0.8657 0.9814
4.6029 0.1624 -0.8657 0.9814
4.6052 0.6540 -0.8743 0.9812
4.6083 0.9899 -0.8859 0.9810
7.5929 1.9134 -1.4718 0.9686
7.5626 2.1920 -1.4800 0.9685
7.5278 2.4728 -1.4893 0.9683
4.6379 -0.8263 -0.9958 0.9809
4.6363 -0.6583 -0.9899 0.9810
4.6335 0.0000 -0.9794 0.9812
4.6363 0.6584 -0.9899 0.9810
4.6379 0.8264 -0.9958 0.9809
7.1857 2.0828 -1.5814 0.9699
7.1505 2.3489 -1.5909 0.9697
6.8727 -1.7319 -1.6657 0.9713
4.6682 -0.6629 -1.1081 0.9808
4.6668 -0.4956 -1.1030 0.9809
4.6652 -0.1646 -1.0971 0.9810
4.6650 0.0000 -1.0964 0.9810
4.6652 0.1646 -1.0971 0.9810
4.6658 0.3296 -1.0993 0.9810
4.6667 0.4956 -1.1030 0.9809
4.6682 0.6629 -1.1081 0.9808
4.6699 0.8321 -1.1148 0.9807
4.6722 1.0036 -1.1231 0.9806
6.8727 1.7319 -1.6657 0.9713
4.7053 -1.0107 -1.2461 0.9803
4.7008 -0.6675 -1.2293 0.9806
4.6992 -0.4990 -1.2236 0.9807
4.6975 -0.1657 -1.2170 0.9808
4.6975 0.1657 -1.2170 0.9808
4.6981 0.3319 -1.2195 0.9807
4.6992 0.4990 -1.2236 0.9807
4.7008 0.6675 -1.2293 0.9806
4.7028 0.8379 -1.2368 0.9805
4.7053 1.0107 -1.2461 0.9803
6.5257 1.8915 -1.7592 0.9723
6.4501 2.3739 -1.7796 0.9720
6.4054 2.6174 -1.7916 0.9718
6.2657 -1.5789 -1.8292 0.9735
4.7343 -0.6723 -1.3537 0.9803
4.7325 -0.5025 -1.3473 0.9804
4.7313 -0.3342 -1.3427 0.9805
4.7306 -0.1669 -1.3400 0.9805
4.7304 0.0000 -1.3391 0.9805
4.7306 0.1669 -1.3400 0.9805
4.7313 0.3343 -1.3427 0.9805
4.7365 0.8439 -1.3620 0.9802
6.2657 1.5789 -1.8292 0.9735
6.1591 2.2668 -1.8579 0.9731
6.1145 2.4985 -1.8699 0.9729
5.9959 -1.5109 -1.9019 0.9745
4.7711 -0.8501 -1.4906 0.9799
4.7687 -0.6771 -1.4815 0.9800
4.7668 -0.5062 -1.4744 0.9801
4.7654 -0.3367 -1.4694 0.9802
4.7646 -0.1681 -1.4664 0.9802
4.7646 0.1681 -1.4664 0.9802
4.7654 0.3367 -1.4694 0.9802
4.7687 0.6772 -1.4815 0.9800
5.9959 1.5109 -1.9019 0.9745
5.9649 1.7289 -1.9102 0.9743
5.9296 1.9478 -1.9197 0.9742
5.8899 2.1677 -1.9304 0.9741
5.8457 2.3887 -1.9423 0.9739
5.7716 -1.2398 -1.9623 0.9754
5.7939 -1.0323 -1.9563 0.9755
5.8423 -0.2061 -1.9432 0.9757
5.8423 0.2062 -1.9432 0.9757
5.8363 0.4123 -1.9448 0.9756
5.8262 0.6187 -1.9476 0.9756
5.8121 0.8254 -1.9514 0.9756
5.7144 1.6563 -1.9777 0.9752
5.5111 -1.3888 -2.0324 0.9761
5.5774 -0.7920 -2.0145 0.9764
5.6014 -0.3957 -2.0081 0.9764
5.6074 -0.1978 -2.0065 0.9764
5.6074 0.1978 -2.0065 0.9764
5.5914 0.5938 -2.0108 0.9764
5.5774 0.7920 -2.0145 0.9764
5.5373 1.1895 -2.0254 0.9762
5.4461 1.7890 -2.0499 0.9759
5.3517 2.1868 -2.0674 0.9757
5.3180 -1.1423 -2.0844 0.9770
5.3398 -0.9514 -2.0785 0.9770
5.3715 -0.5704 -2.0700 0.9771
5.3872 -0.1900 -2.0658 0.9772
5.3872 0.1901 -2.0658 0.9772
5.3813 0.3802 -2.0674 0.9772
5.3715 0.5704 -2.0700 0.9771
5.3398 0.9514 -2.0785 0.9770
5.2920 1.3336 -2.0914 0.9769
5.2177 1.7139 -2.1046 0.9767
5.1647 -0.5484 -2.1257 0.9778
5.1745 -0.3656 -2.1231 0.9778
5.1803 -0.1827 -2.1215 0.9778
5.1745 0.3656 -2.1231 0.9778
5.1511 0.7315 -2.1294 0.9778
5.1335 0.9147 -2.1341 0.9777
5.1119 1.0981 -2.1399 0.9777
4.9178 -1.0564 -2.1922 0.9783
4.9699 -0.5278 -2.1781 0.9784
4.9853 -0.1759 -2.1740 0.9785
4.9872 0.0000 -2.1735 0.9785
4.9795 0.3518 -2.1756 0.9785
4.9564 0.7038 -2.1818 0.9784
4.9178 1.0564 -2.1922 0.9783
4.8634 1.4097 -2.2068 0.9781
4.7097 -1.1868 -2.2482 0.9788
4.7345 -1.0170 -2.2415 0.9789
4.7725 -0.6777 -2.2313 0.9790
4.8009 0.1694 -2.2237 0.9790
4.7952 0.3388 -2.2252 0.9790
4.7858 0.5082 -2.2277 0.9790
4.7345 1.0170 -2.2415 0.9789
4.5709 1.8677 -2.2856 0.9785
4.5609 -0.9797 -2.2883 0.9794
4.5815 -0.8163 -2.2827 0.9795
4.5983 -0.6530 -2.2782 0.9795
4.6281 0.0000 -2.2702 0.9796
4.6114 0.4897 -2.2747 0.9796
4.5983 0.6530 -2.2782 0.9795
4.5815 0.8163 -2.2827 0.9795
4.5365 1.1432 -2.2948 0.9794
4.5083 1.3067 -2.3025 0.9793
4.4001 1.7980 -2.3316 0.9790
4.3962 -0.9443 -2.3327 0.9799
4.4164 -0.7869 -2.3272 0.9800
4.4548 -0.3147 -2.3168 0.9801
4.4603 -0.1574 -2.3154 0.9801
4.4622 0.0000 -2.3149 0.9801
4.4549 0.3147 -2.3168 0.9801
4.4457 0.4721 -2.3193 0.9801
4.4329 0.6295 -2.3228 0.9800
4.4164 0.7869 -2.3272 0.9800
4.3445 1.2592 -2.3466 0.9798
4.3129 1.4168 -2.3551 0.9798
4.2775 1.5743 -2.3646 0.9797
4.2158 -1.0624 -2.3812 0.9804
4.2592 -0.7589 -2.3695 0.9805
4.3024 -0.1518 -2.3579 0.9806
4.2880 0.4554 -2.3618 0.9805
4.2592 0.7589 -2.3695 0.9805
4.2394 0.9106 -2.3749 0.9804
4.1886 1.2141 -2.3885 0.9803
4.1577 1.3658 -2.3969 0.9802
4.0844 1.6690 -2.4166 0.9801
4.0668 -1.0248 -2.4214 0.9808
4.0898 -0.8785 -2.4151 0.9809
4.1253 -0.5858 -2.4056 0.9809
4.1376 -0.4394 -2.4023 0.9810
4.1517 0.1465 -2.3985 0.9810
4.0898 0.8785 -2.4151 0.9809
