ply
format ascii 1.0
element vertex 148
property float32 x
property float32 y
property float32 z
property float32 I
end_header
-16.3361 2.1934 -0.4641 0.9362
-16.3326 2.8035 -1.2151 0.9357
-16.1434 2.1675 -1.1943 0.9368
-15.9116 1.5473 -1.1722 0.9379
-16.5119 3.4593 -1.6196 0.9345
-16.2142 2.7831 -1.5794 0.9360
-16.0477 2.1546 -1.5545 0.9370
-16.3633 3.4281 -1.9859 0.9349
-16.1130 2.7658 -1.9420 0.9363
-15.9332 2.1393 -1.9096 0.9373
-15.7177 1.5285 -1.8759 0.9384
-16.5179 4.0955 -2.4113 0.9336
-16.2778 3.4102 -2.3565 0.9350
-16.0160 2.7491 -2.3025 0.9365
-41.9649 24.8843 -8.0373 0.8205
-16.4108 4.0689 -2.7854 0.9338
-16.2015 3.3943 -2.7270 0.9351
-15.9286 2.7341 -2.6624 0.9366
-18.9481 8.5908 -3.9105 0.9188
-16.3263 4.0480 -3.1616 0.9338
-16.0908 3.3710 -3.0901 0.9353
-15.8466 2.7200 -3.0221 0.9367
-15.6126 2.0962 -2.9609 0.9379
-38.1195 22.6040 -9.3678 0.8343
-16.2085 4.0188 -3.5299 0.9340
-15.5206 2.0839 -3.3102 0.9380
-15.3462 1.4923 -3.2592 0.9389
-37.8577 22.4488 -10.3441 0.8346
-37.9229 20.6542 -10.1489 0.8374
-40.9538 20.4024 -10.7534 0.8286
-18.6841 8.4711 -4.8214 0.9192
-15.4575 2.0754 -3.6655 0.9379
-15.2340 1.4815 -3.5972 0.9390
-37.5967 22.2940 -11.3172 0.8348
-37.6664 20.5145 -11.1051 0.8376
-35.3956 11.5764 -9.6423 0.8574
-37.3363 22.1396 -12.2882 0.8349
-37.4779 18.6708 -11.8534 0.8402
-38.6187 17.5092 -12.0039 0.8384
-35.1958 11.5110 -10.4831 0.8573
-15.5460 2.6684 -4.4653 0.9365
-32.1903 19.0882 -11.5109 0.8550
-37.1546 20.2357 -13.0130 0.8377
-27.6691 13.7842 -9.5080 0.8787
-37.2910 16.9072 -12.5937 0.8425
-38.8396 15.9262 -12.9116 0.8389
-15.4803 2.6572 -4.8310 0.9364
-29.4341 17.4538 -11.3749 0.8657
-35.8397 16.2492 -13.0806 0.8472
-27.6184 11.3250 -9.9224 0.8818
-27.7382 10.2075 -9.8248 0.8829
-42.6308 13.9427 -14.9094 0.8277
-27.0722 7.7720 -9.3625 0.8881
-18.8292 9.3803 -7.5228 0.9145
-22.1023 9.0631 -8.5427 0.9035
-24.5123 9.0204 -9.3405 0.8950
-31.7610 10.3877 -11.9500 0.8677
-26.9423 7.7347 -10.0240 0.8877
-34.2319 8.4875 -12.6122 0.8609
-36.2592 6.2238 -13.1562 0.8553
-37.6443 3.6608 -13.5254 0.8516
-38.2538 0.9141 -13.6838 0.8500
-38.0250 -1.8708 -13.6145 0.8507
-37.6022 -3.2298 -13.4963 0.8519
-19.1635 11.3636 -8.5379 0.9090
-18.6130 10.1373 -8.1222 0.9132
-18.6619 9.2970 -7.9899 0.9146
-23.3107 9.5586 -9.6549 0.8977
-26.0786 7.4868 -10.3975 0.8903
-27.5847 5.7791 -10.8005 0.8863
-28.7011 3.8536 -11.0975 0.8833
-29.0837 2.8283 -11.1980 0.8823
-29.3430 1.7749 -11.2653 0.8817
-29.4729 -0.3724 -11.2954 0.8814
-29.3613 -1.4445 -11.2654 0.8817
-29.1201 -2.5013 -11.2005 0.8823
-17.1025 9.3146 -7.9705 0.9193
-17.9007 8.9178 -8.1851 0.9172
-21.4727 6.1645 -9.1432 0.9080
-23.6668 2.3015 -9.7319 0.9023
-23.9732 0.5728 -9.8144 0.9015
-23.9876 -0.3031 -9.8183 0.9015
-23.9086 -1.1763 -9.7971 0.9017
-23.7376 -2.0389 -9.7510 0.9022
-14.1485 8.3898 -7.1687 0.9307
-14.7977 8.0594 -7.3436 0.9291
-15.4341 7.6890 -7.5149 0.9275
-16.0527 7.2781 -7.6815 0.9260
-16.6483 6.8266 -7.8419 0.9245
-18.2407 5.2366 -8.2707 0.9205
-19.0847 3.9983 -8.4980 0.9184
-20.1539 0.4816 -8.7859 0.9158
-20.1648 -0.2548 -8.7889 0.9158
-20.5460 -1.0108 -8.9651 0.9142
-20.9144 -1.7964 -9.1484 0.9125
-12.4924 7.4077 -6.7228 0.9380
-13.0285 7.0958 -6.8671 0.9367
-14.5398 5.9621 -7.2741 0.9331
-15.4264 5.0453 -7.5129 0.9310
-16.1778 4.0111 -7.7152 0.9292
-16.4929 3.4553 -7.8001 0.9284
-16.7629 2.8773 -7.8728 0.9278
-17.1555 1.6683 -7.9785 0.9268
-17.2735 1.0449 -8.0103 0.9266
-18.0810 0.4320 -8.3718 0.9234
-18.0058 -1.5466 -8.3653 0.9234
-11.1588 6.6169 -6.3636 0.9438
-11.6110 6.3238 -6.4854 0.9428
-12.8749 5.2794 -6.8258 0.9399
-13.2548 4.8777 -6.9281 0.9390
-13.6088 4.4508 -7.0234 0.9382
-13.9337 4.0001 -7.1109 0.9375
-14.2265 3.5274 -7.1897 0.9368
-14.4844 3.0345 -7.2592 0.9362
-14.7048 2.5240 -7.3185 0.9357
-15.7059 1.5273 -7.7405 0.9321
-15.8309 0.9576 -7.7796 0.9318
-15.8922 -0.2008 -7.7961 0.9316
-15.8525 -0.7799 -7.7854 0.9317
-15.7663 -1.3542 -7.7622 0.9319
-10.0607 5.9658 -6.0679 0.9487
-10.4488 5.6908 -6.1724 0.9478
-11.5256 4.7261 -6.4624 0.9454
-12.4191 3.5653 -6.7030 0.9434
-13.6668 2.3459 -7.1937 0.9394
-13.8366 1.8577 -7.2426 0.9390
-13.9579 1.3573 -7.2752 0.9388
-14.0415 0.8493 -7.2977 0.9386
-14.0925 -0.1781 -7.3115 0.9385
-13.9877 -1.2015 -7.2833 0.9387
-9.4776 5.1619 -5.9109 0.9520
-10.1141 4.5856 -6.0823 0.9506
-10.6855 3.9322 -6.2362 0.9494
-11.6821 3.3537 -6.6568 0.9461
-11.9181 2.9550 -6.7252 0.9455
-12.1132 2.5377 -6.7785 0.9451
-12.2773 2.1073 -6.8227 0.9448
-12.5144 1.2170 -6.8865 0.9443
-12.5397 -1.0771 -6.8933 0.9442
-9.5225 4.3173 -6.0365 0.9529
-9.8968 4.0582 -6.1757 0.9518
-10.1594 3.7386 -6.2501 0.9512
-10.3991 3.4011 -6.3169 0.9507
-10.8020 2.6783 -6.4254 0.9499
-11.3760 0.6881 -6.5800 0.9487
-11.4133 -0.1442 -6.5900 0.9486
-11.3892 -0.5604 -6.5835 0.9487
-11.3368 -0.9738 -6.5694 0.9488
