ply
format ascii 1.0
element vertex 428
property float32 x
property float32 y
property float32 z
property float32 I
end_header
40.0452 23.7552 8.2100 0.8277
37.9441 24.4106 7.9555 0.8326
30.3070 32.8404 7.8797 0.8340
15.9510 18.5939 4.3197 0.9053
22.6043 33.0222 7.0562 0.8500
21.9572 34.7130 7.2425 0.8463
11.9458 29.6759 5.6407 0.8782
11.4403 31.6912 5.9410 0.8721
9.4608 29.5171 5.4655 0.8817
8.5058 30.2721 5.5445 0.8801
6.5541 32.1025 5.7773 0.8754
24.0392 13.1061 4.1944 0.8951
30.2546 24.4884 5.9628 0.8543
30.3097 32.8432 6.8465 0.8346
15.9672 18.6128 3.7568 0.9055
26.2018 32.8842 6.4413 0.8435
22.7707 33.2653 6.1756 0.8495
12.5397 31.1514 5.1443 0.8729
11.0176 30.5203 4.9709 0.8769
10.3626 32.3304 5.2010 0.8716
8.2833 34.1958 5.3901 0.8673
24.2841 13.2397 3.6017 0.8944
20.6392 13.2778 3.1958 0.9057
18.9067 13.1562 2.9995 0.9113
27.2995 23.7852 4.7150 0.8641
26.3579 24.7017 4.7040 0.8644
24.3556 32.9509 5.3358 0.8477
8.6657 30.8413 4.1717 0.8788
7.9370 32.7662 4.3902 0.8728
6.8115 33.3633 4.4342 0.8717
22.8501 12.4579 2.7947 0.9006
20.6633 13.2934 2.6384 0.9059
17.4598 13.1137 2.3448 0.9159
16.2847 13.1810 2.2497 0.9192
26.9916 23.5170 3.8442 0.8659
25.3102 23.7199 3.7248 0.8698
22.0684 23.9131 3.4942 0.8773
16.1264 18.7984 2.6596 0.9052
8.9988 32.0266 3.5722 0.8747
19.4284 10.5923 1.8732 0.9150
19.6569 11.6607 1.9348 0.9123
19.9170 12.8132 2.0048 0.9093
17.5733 13.1990 1.8605 0.9156
13.3671 13.4701 1.6064 0.9267
16.9095 18.3229 2.1107 0.9048
20.5684 23.9764 2.6742 0.8809
18.9785 23.8188 2.5781 0.8849
12.0524 33.3867 3.0048 0.8672
16.9063 9.2173 1.1941 0.9257
17.0326 10.1039 1.2280 0.9237
17.1749 11.0491 1.2664 0.9214
17.3355 12.0628 1.3096 0.9188
16.4933 13.3499 1.3158 0.9185
15.3749 13.3957 1.2645 0.9215
14.0288 13.1473 1.1922 0.9258
19.7076 22.9730 1.8769 0.8858
18.8802 23.6954 1.8788 0.8857
17.7427 24.0043 1.8510 0.8873
16.2773 23.7792 1.7869 0.8909
15.5839 24.6371 1.8077 0.8897
15.2404 28.4713 2.0025 0.8786
12.0324 33.3312 2.1974 0.8676
1.9578 15.1078 0.9447 0.9408
14.9687 8.1609 0.6723 0.9340
15.0314 8.9167 0.6891 0.9324
15.1016 9.7153 0.7081 0.9306
15.1802 10.5631 0.7292 0.9286
15.3671 12.4383 0.7796 0.9239
12.4615 13.5032 0.7245 0.9291
11.6296 13.5565 0.7043 0.9310
14.7480 25.3017 1.1548 0.8894
14.6923 30.0144 1.3177 0.8748
14.7300 33.0770 1.4278 0.8651
12.1015 33.5228 1.4053 0.8670
13.6581 7.4464 0.2628 0.9397
13.4535 7.9807 0.2642 0.9393
13.4775 8.6705 0.2707 0.9379
13.5043 9.3969 0.2779 0.9363
13.6041 11.8528 0.3048 0.9304
12.3490 13.3813 0.3076 0.9297
10.6413 13.3552 0.2885 0.9340
9.8130 13.2760 0.2789 0.9361
9.9489 14.5341 0.2975 0.9320
10.1169 15.9943 0.3197 0.9271
10.0003 18.6820 0.3579 0.9187
9.8588 20.1402 0.3788 0.9142
9.8960 27.4131 0.4923 0.8899
10.0287 41.4012 0.7196 0.8433
12.7546 6.9538 -0.0818 0.9435
12.5396 7.4386 -0.0821 0.9433
12.1697 7.8291 -0.0815 0.9438
12.1625 8.4632 -0.0834 0.9425
12.1545 9.1290 -0.0856 0.9410
12.0993 13.1106 -0.1004 0.9311
11.4715 13.3722 -0.0992 0.9320
10.0755 14.7190 -0.1004 0.9311
10.0797 17.2929 -0.1127 0.9231
10.1558 20.7470 -0.1301 0.9117
10.3453 36.8188 -0.2153 0.8581
11.5519 7.4317 -0.3868 0.9465
10.9934 8.8982 -0.3982 0.9450
10.9090 10.2235 -0.4210 0.9419
10.2123 16.1450 -0.5379 0.9264
10.4500 19.5222 -0.6235 0.9152
10.1561 22.8061 -0.7030 0.9049
9.9746 24.7790 -0.7521 0.8986
9.7629 27.0443 -0.8096 0.8913
8.3982 41.1383 -1.1824 0.8453
7.8589 47.1576 -1.3462 0.8259
10.7521 5.8620 -0.6211 0.9521
10.7126 6.3548 -0.6317 0.9513
10.6005 7.3763 -0.6549 0.9496
10.0398 8.1263 -0.6550 0.9496
9.9136 9.2907 -0.6890 0.9470
9.7616 10.5776 -0.7300 0.9440
9.4714 12.8139 -0.8081 0.9382
9.3017 14.7054 -0.8824 0.9327
9.1963 15.7772 -0.9261 0.9295
9.0742 16.9521 -0.9751 0.9259
8.2156 22.7584 -1.2271 0.9076
7.8996 24.6462 -1.3125 0.9015
7.5320 26.8065 -1.4121 0.8945
5.9585 35.7545 -1.8383 0.8649
5.1875 40.0299 -2.0471 0.8507
9.9673 5.4342 -0.8324 0.9555
9.9184 5.8837 -0.8456 0.9548
9.8057 6.8232 -0.8759 0.9532
9.7255 7.3046 -0.8918 0.9524
9.1632 7.9836 -0.8911 0.9524
9.0829 8.5122 -0.9127 0.9513
8.8994 9.6433 -0.9621 0.9487
8.6798 10.8935 -1.0213 0.9457
8.5539 11.5727 -1.0552 0.9439
8.2634 13.0639 -1.1334 0.9399
8.1147 13.9216 -1.1815 0.9374
7.3879 18.3528 -1.4506 0.9237
6.3681 22.6639 -1.7261 0.9099
5.9259 24.4637 -1.8456 0.9040
9.2317 5.4763 -1.0305 0.9578
9.1042 6.3351 -1.0648 0.9564
8.5510 7.4502 -1.0888 0.9554
8.3785 7.8521 -1.1024 0.9549
8.2810 8.3448 -1.1287 0.9539
8.0594 9.3947 -1.1883 0.9515
7.3025 12.5282 -1.3922 0.9434
7.1050 13.2732 -1.4454 0.9413
6.7199 15.0999 -1.5881 0.9357
6.1993 17.1756 -1.7534 0.9293
5.0835 20.9862 -2.0730 0.9169
4.5946 22.5047 -2.2051 0.9118
2.6475 20.4299 -1.9778 0.9206
8.6916 4.7387 -1.1759 0.9609
8.4939 5.9104 -1.2292 0.9592
8.3307 6.7430 -1.2731 0.9577
7.5571 8.1888 -1.3236 0.9561
7.1593 9.6859 -1.4307 0.9526
7.0033 10.2310 -1.4727 0.9513
6.4467 12.0433 -1.6226 0.9465
6.2259 12.7187 -1.6821 0.9446
5.9839 13.4372 -1.7473 0.9425
5.7476 14.2782 -1.8283 0.9399
5.4927 15.2156 -1.9216 0.9369
5.1748 16.1448 -2.0139 0.9340
4.8321 17.1974 -2.1219 0.9306
4.4486 18.3644 -2.2445 0.9267
3.9889 19.5377 -2.3687 0.9228
8.1652 4.4517 -1.3177 0.9631
8.1019 4.8061 -1.3347 0.9627
7.9575 5.5372 -1.3736 0.9616
7.8758 5.9154 -1.3956 0.9610
6.8980 8.0409 -1.5011 0.9581
6.6159 8.9507 -1.5771 0.9560
6.4574 9.4334 -1.6198 0.9549
6.0994 10.4642 -1.7162 0.9522
5.6776 11.5987 -1.8297 0.9492
5.4384 12.2122 -1.8942 0.9474
5.1774 12.8616 -1.9645 0.9455
4.8930 13.5542 -2.0418 0.9434
4.6060 14.3703 -2.1382 0.9409
4.2896 15.2667 -2.2469 0.9379
2.8340 13.8811 -2.0074 0.9444
3.0151 18.0921 -2.5988 0.9286
2.5107 19.3734 -2.7680 0.9241
7.6307 4.5266 -1.4616 0.9647
7.5595 4.8633 -1.4808 0.9642
7.3981 5.5566 -1.5242 0.9632
7.1031 6.6568 -1.6037 0.9613
6.4305 7.4959 -1.6270 0.9608
6.2938 7.8989 -1.6638 0.9599
5.9876 8.7472 -1.7463 0.9579
5.6313 9.6612 -1.8422 0.9557
5.4315 10.1469 -1.8960 0.9544
4.4517 12.3318 -2.1599 0.9482
3.8269 13.6200 -2.3306 0.9443
3.1687 13.0811 -2.2173 0.9469
2.6423 12.9420 -2.1760 0.9479
2.6824 16.0950 -2.6880 0.9360
2.2047 17.0129 -2.8261 0.9328
7.0573 4.9108 -1.6160 0.9656
6.7809 5.9080 -1.6905 0.9641
6.6740 6.2547 -1.7192 0.9635
6.5590 6.6095 -1.7502 0.9628
6.2896 7.3317 -1.8157 0.9614
5.8897 7.3917 -1.7765 0.9623
5.7363 7.7607 -1.8139 0.9615
5.5787 8.1499 -1.8564 0.9606
5.4093 8.5518 -1.9020 0.9597
5.0312 9.3990 -2.0038 0.9575
4.8201 9.8468 -2.0607 0.9564
4.3470 10.7989 -2.1881 0.9537
3.7947 11.8391 -2.3368 0.9507
2.7127 13.2870 -2.5489 0.9463
1.9626 15.1443 -2.8703 0.9397
6.8273 4.0500 -1.6780 0.9681
6.7542 4.3452 -1.6976 0.9677
6.4971 5.2589 -1.7669 0.9664
6.3977 5.5742 -1.7936 0.9659
6.2908 5.8955 -1.8224 0.9654
6.0528 6.5587 -1.8865 0.9642
5.7693 7.2407 -1.9570 0.9629
5.4361 7.3545 -1.9332 0.9633
5.0528 7.9882 -1.9980 0.9621
4.2574 9.5603 -2.2122 0.9581
2.8776 11.8797 -2.5837 0.9513
2.5329 12.4065 -2.6766 0.9495
6.4814 3.8448 -1.7711 0.9695
6.4082 4.1226 -1.7908 0.9692
6.3290 4.4040 -1.8122 0.9688
6.2435 4.6894 -1.8352 0.9684
5.8322 5.8771 -1.9459 0.9666
5.2832 7.1477 -2.0890 0.9641
5.0109 7.3203 -2.0849 0.9642
4.7376 7.4899 -2.0829 0.9642
4.5634 7.8291 -2.1298 0.9634
4.3773 8.1774 -2.1799 0.9626
4.1782 8.5356 -2.2335 0.9617
3.4933 9.6769 -2.4180 0.9586
3.2317 10.0826 -2.4884 0.9574
2.9511 10.5028 -2.5640 0.9562
2.6496 10.9385 -2.6451 0.9548
2.3256 11.3911 -2.7324 0.9534
1.9769 11.8621 -2.8263 0.9518
1.6009 12.3532 -2.9276 0.9501
6.1656 3.6575 -1.8561 0.9708
6.0928 3.9196 -1.8758 0.9705
6.0139 4.1847 -1.8970 0.9702
5.9290 4.4531 -1.9199 0.9698
5.8375 4.7250 -1.9445 0.9694
4.9887 6.7493 -2.1731 0.9659
4.6094 7.2871 -2.2325 0.9650
4.2871 7.3549 -2.2042 0.9654
3.9136 7.9950 -2.3048 0.9639
3.7082 8.3269 -2.3601 0.9630
3.0053 9.3763 -2.5494 0.9601
2.4532 10.1275 -2.6980 0.9579
2.1480 10.5209 -2.7802 0.9566
5.9428 3.2400 -1.9162 0.9723
5.7255 3.9841 -1.9747 0.9714
5.5509 4.4930 -2.0217 0.9707
5.3502 5.0140 -2.0757 0.9700
5.2392 5.2795 -2.1056 0.9696
5.1208 5.5488 -2.1375 0.9691
4.9945 5.8220 -2.1715 0.9686
4.8599 6.0993 -2.2078 0.9681
4.5641 6.6676 -2.2874 0.9670
4.3988 6.9542 -2.3295 0.9664
4.2200 7.2399 -2.3723 0.9658
3.8787 7.2460 -2.3267 0.9664
3.0450 8.4349 -2.5387 0.9634
2.8064 8.7558 -2.6029 0.9625
1.9939 9.7661 -2.8217 0.9594
1.6866 10.1203 -2.9045 0.9582
1.3587 10.4841 -2.9928 0.9570
5.6753 3.0942 -1.9882 0.9733
5.6092 3.3274 -2.0060 0.9731
5.5376 3.5625 -2.0253 0.9728
5.4603 3.7996 -2.0461 0.9725
5.2880 4.2801 -2.0925 0.9719
5.0903 4.7704 -2.1457 0.9712
4.7412 5.5268 -2.2397 0.9700
4.4696 6.0470 -2.3129 0.9690
4.3210 6.3125 -2.3529 0.9685
3.0730 7.6339 -2.5311 0.9661
2.8581 7.9173 -2.5890 0.9654
2.3882 8.4996 -2.7155 0.9637
1.2614 9.7339 -3.0190 0.9598
5.4276 2.9591 -2.0549 0.9743
5.2154 3.6291 -2.1120 0.9736
5.0456 4.0840 -2.1578 0.9730
4.7443 4.7809 -2.2389 0.9720
4.6305 5.0175 -2.2696 0.9716
4.0996 5.9890 -2.4125 0.9699
3.9462 6.2387 -2.4538 0.9694
3.4250 6.9968 -2.5895 0.9677
3.1910 7.1656 -2.6074 0.9675
1.7393 8.5193 -2.8903 0.9640
5.1329 3.0449 -2.1342 0.9750
5.0633 3.2573 -2.1530 0.9747
4.9077 3.6860 -2.1949 0.9743
4.7291 4.1203 -2.2430 0.9737
4.6307 4.3397 -2.2695 0.9734
4.5259 4.5607 -2.2977 0.9731
4.2962 5.0080 -2.3596 0.9724
4.0377 5.4626 -2.4292 0.9716
3.8969 5.6929 -2.4671 0.9711
3.7479 5.9252 -2.5072 0.9707
3.5904 6.1597 -2.5496 0.9702
2.8599 7.1045 -2.7387 0.9680
1.8782 7.7535 -2.8529 0.9667
4.8506 3.1205 -2.2103 0.9756
4.7768 3.3239 -2.2301 0.9754
4.6977 3.5283 -2.2515 0.9751
4.5225 3.9403 -2.2986 0.9746
4.3236 4.3568 -2.3522 0.9740
4.2147 4.5670 -2.3815 0.9737
3.9768 4.9910 -2.4456 0.9730
3.4132 5.8556 -2.5974 0.9714
3.0821 6.2964 -2.6865 0.9704
2.5114 6.9570 -2.8345 0.9688
2.2643 7.0643 -2.8428 0.9687
1.7704 7.3089 -2.8819 0.9683
1.5371 7.5289 -2.9447 0.9676
4.7191 2.7994 -2.2457 0.9766
4.6518 2.9926 -2.2638 0.9764
4.4186 3.5765 -2.3266 0.9757
4.3300 3.7726 -2.3505 0.9755
4.2357 3.9695 -2.3759 0.9752
4.1355 4.1673 -2.4029 0.9749
4.0291 4.3659 -2.4315 0.9746
3.9165 4.5654 -2.4618 0.9743
3.7973 4.7657 -2.4939 0.9740
3.6713 4.9669 -2.5279 0.9737
3.3979 5.3719 -2.6015 0.9729
3.2499 5.5756 -2.6413 0.9725
3.0941 5.7802 -2.6833 0.9721
2.5756 6.3984 -2.8229 0.9706
2.1816 6.8063 -2.9253 0.9696
1.6975 7.0076 -2.9510 0.9693
1.4506 7.1053 -2.9680 0.9691
4.5315 2.6881 -2.2962 0.9773
4.4654 2.8727 -2.3140 0.9771
4.3182 3.2433 -2.3536 0.9767
4.2369 3.4293 -2.3756 0.9765
4.0579 3.8029 -2.4237 0.9760
3.9600 3.9905 -2.4501 0.9758
3.8562 4.1785 -2.4781 0.9755
3.2423 5.1259 -2.6434 0.9739
2.9482 5.5076 -2.7226 0.9731
2.6231 5.8903 -2.8101 0.9723
2.4482 6.0818 -2.8572 0.9718
2.0720 6.4645 -2.9585 0.9708
1.4198 6.9541 -3.0933 0.9695
1.1563 6.9385 -3.0656 0.9698
0.9176 7.0804 -3.1116 0.9693
4.3548 2.5833 -2.3438 0.9779
4.2900 2.7599 -2.3612 0.9778
3.9815 3.4689 -2.4443 0.9770
3.8913 3.6468 -2.4686 0.9768
3.7957 3.8250 -2.4943 0.9765
3.5875 4.1819 -2.5504 0.9760
3.3553 4.5394 -2.6129 0.9754
3.2298 4.7184 -2.6467 0.9751
2.8129 5.2550 -2.7590 0.9741
2.6597 5.4335 -2.8003 0.9737
2.4991 5.6118 -2.8435 0.9733
1.9691 6.1435 -2.9862 0.9720
1.7756 6.3192 -3.0384 0.9715
1.5731 6.4940 -3.0929 0.9710
1.1377 6.8268 -3.2036 0.9700
4.1882 2.4845 -2.3887 0.9785
4.1247 2.6535 -2.4058 0.9784
3.9057 3.1613 -2.4647 0.9779
3.8228 3.3307 -2.4871 0.9777
3.7348 3.5001 -2.5108 0.9775
3.3286 4.1775 -2.6201 0.9765
3.0909 4.5154 -2.6841 0.9759
2.8282 4.8521 -2.7549 0.9753
2.6870 5.0198 -2.7929 0.9750
2.3839 5.3533 -2.8745 0.9742
2.2216 5.5189 -2.9182 0.9738
1.6885 6.0092 -3.0618 0.9726
1.4946 6.1699 -3.1140 0.9721
4.0882 2.2289 -2.4156 0.9792
3.9683 2.5529 -2.4479 0.9790
3.9015 2.7149 -2.4658 0.9788
3.8302 2.8768 -2.4851 0.9786
3.1916 4.0056 -2.6570 0.9772
3.0791 4.1657 -2.6873 0.9769
2.9607 4.3252 -2.7192 0.9767
2.4264 4.9569 -2.8631 0.9754
2.2767 5.1126 -2.9034 0.9751
2.1202 5.2671 -2.9455 0.9747
1.9567 5.4203 -2.9896 0.9744
1.7860 5.5721 -3.0355 0.9740
1.6078 5.7222 -3.0835 0.9736
1.4220 5.8705 -3.1336 0.9731
1.0267 6.1605 -3.2400 0.9722
3.9374 2.1467 -2.4562 0.9798
3.8200 2.4575 -2.4878 0.9795
3.7548 2.6127 -2.5054 0.9794
3.6850 2.7677 -2.5242 0.9792
3.3591 3.3850 -2.6119 0.9785
3.0626 3.8437 -2.6918 0.9778
2.7178 4.2967 -2.7846 0.9771
2.4594 4.5944 -2.8542 0.9765
2.1765 4.8875 -2.9304 0.9759
2.0256 5.0321 -2.9710 0.9756
1.8682 5.1750 -3.0134 0.9752
1.5329 5.4555 -3.1037 0.9745
0.9765 5.8595 -3.2535 0.9733
0.7761 5.9888 -3.3075 0.9728
3.5472 2.6642 -2.5613 0.9797
3.4746 2.8123 -2.5808 0.9796
3.3975 2.9601 -2.6016 0.9794
3.3157 3.1074 -2.6236 0.9792
3.2293 3.2542 -2.6469 0.9790
3.1381 3.4004 -2.6714 0.9789
2.7230 3.9780 -2.7832 0.9780
2.4838 4.2612 -2.8476 0.9775
2.2222 4.5396 -2.9181 0.9769
1.9370 4.8120 -2.9949 0.9763
1.7854 4.9456 -3.0357 0.9760
1.6274 5.0773 -3.0783 0.9757
1.4630 5.2067 -3.1225 0.9753
1.2920 5.3339 -3.1686 0.9750
1.1144 5.4584 -3.2164 0.9746
0.9299 5.5800 -3.2661 0.9742
0.7385 5.6986 -3.3176 0.9738
