ply
format ascii 1.0
element vertex 394
property float32 x
property float32 y
property float32 z
property float32 I
end_header
43.8070 -19.2629 8.4382 0.8234
40.7043 -11.2169 7.4448 0.8424
39.9212 -9.4548 7.2339 0.8465
39.2841 -7.8083 7.0624 0.8499
38.7763 -6.2522 6.9256 0.8525
38.3854 -4.7655 6.8203 0.8546
38.1019 -3.3299 6.7440 0.8561
37.9195 -1.9290 6.6949 0.8571
37.8340 -0.5480 6.6719 0.8575
37.8436 0.8274 6.6745 0.8575
38.4558 5.0626 6.8393 0.8542
37.6339 7.7693 6.7758 0.8555
38.2693 9.3622 6.9469 0.8521
39.0480 11.0710 7.1566 0.8480
36.1925 13.1687 6.7910 0.8552
33.6620 -13.3643 5.5484 0.8637
32.9559 -11.7166 5.3582 0.8680
32.3589 -10.1959 5.1975 0.8717
31.8563 -8.7787 5.0621 0.8748
31.4370 -7.4454 4.9492 0.8775
30.8146 -4.9685 4.7816 0.8813
30.2936 -0.4388 4.6413 0.8846
30.2990 0.6624 4.6427 0.8846
30.4698 2.8895 4.6887 0.8835
30.8657 5.2106 4.7954 0.8810
30.4508 7.4495 4.8025 0.8809
30.5172 8.6523 4.8593 0.8795
31.0146 10.0244 4.9933 0.8764
31.6047 11.4994 5.1522 0.8728
27.6810 -12.1720 3.9378 0.8852
27.2211 -10.8072 3.8139 0.8886
26.8261 -9.5372 3.7075 0.8915
26.2002 -7.2200 3.5390 0.8962
25.9582 -6.1479 3.4738 0.8980
25.7576 -5.1197 3.4198 0.8995
25.4689 -3.1620 3.3420 0.9017
25.2915 0.5530 3.2943 0.9030
25.3925 2.4080 3.3215 0.9022
25.4918 3.3559 3.3482 0.9015
25.7951 5.3252 3.4299 0.8992
25.3605 8.1969 3.4707 0.8981
25.6940 9.3488 3.5605 0.8956
22.6396 -8.0489 2.5802 0.9079
22.2695 -6.1368 2.4805 0.9113
22.0044 -4.3737 2.4091 0.9137
21.8301 -2.7102 2.3622 0.9153
21.7740 -1.9029 2.3470 0.9158
21.7205 -0.3146 2.3326 0.9163
21.7224 0.4749 2.3331 0.9163
21.7434 1.2670 2.3388 0.9161
21.7838 2.0658 2.3497 0.9157
21.8439 2.8757 2.3659 0.9152
22.3020 6.3231 2.4892 0.9110
22.4474 7.2554 2.5332 0.9095
19.8880 -8.7452 1.8392 0.9165
19.7323 -7.8340 1.7972 0.9183
19.4782 -6.1373 1.7288 0.9213
19.2177 -3.8198 1.6587 0.9244
19.1126 -2.3729 1.6304 0.9256
7.6095 -0.6650 0.6466 0.9698
7.6015 -0.1101 0.6436 0.9699
19.3064 4.7231 1.6825 0.9233
19.5008 6.3029 1.7349 0.9210
19.6073 7.1341 1.7663 0.9197
17.4473 -7.6720 1.1819 0.9265
17.2145 -5.4241 1.1192 0.9302
17.1562 -4.7278 1.1035 0.9312
17.1065 -4.0515 1.0901 0.9320
7.0750 -0.8784 0.4421 0.9718
7.0703 -0.6179 0.4401 0.9720
7.0672 -0.3595 0.4388 0.9720
7.0656 -0.1024 0.4382 0.9721
17.0088 2.2392 1.0638 0.9336
17.1159 4.1873 1.0927 0.9318
17.1673 4.8673 1.1065 0.9310
17.2274 5.5682 1.1227 0.9300
15.4611 -5.4967 0.6470 0.9364
15.4267 -4.8608 0.6378 0.9373
15.3714 -3.6405 0.6229 0.9387
15.3324 -2.4722 0.6124 0.9397
6.6036 -0.5771 0.2614 0.9738
6.6015 -0.0956 0.2603 0.9739
6.6016 0.1443 0.2604 0.9739
15.3357 2.5889 0.6133 0.9396
15.3762 3.7617 0.6242 0.9386
15.4026 4.3670 0.6313 0.9379
15.4686 5.6283 0.6491 0.9362
14.0035 -5.5596 0.2545 0.9415
13.9897 -4.9737 0.2508 0.9423
13.9776 -4.4042 0.2476 0.9431
13.9671 -3.8489 0.2447 0.9437
13.9582 -3.3058 0.2423 0.9442
6.1951 -0.0897 0.1047 0.9755
6.1950 0.1354 0.1047 0.9755
6.1950 0.3610 0.1048 0.9755
6.1954 0.5875 0.1051 0.9754
13.9520 2.8803 0.2406 0.9446
13.9691 3.9606 0.2453 0.9436
12.7783 -4.0263 -0.0754 0.9478
12.7812 -3.5221 -0.0746 0.9484
12.7837 -3.0276 -0.0740 0.9488
12.7858 -2.5414 -0.0734 0.9492
5.8519 -0.2977 -0.0330 0.9768
5.8519 0.3410 -0.0330 0.9768
5.8516 0.5549 -0.0331 0.9768
5.8513 0.7703 -0.0332 0.9767
5.8509 0.9877 -0.0334 0.9765
12.7854 2.6395 -0.0735 0.9491
11.7197 -5.1534 -0.3605 0.9501
11.7540 -4.1788 -0.3513 0.9513
11.7806 -3.2464 -0.3441 0.9523
11.7913 -2.7926 -0.3412 0.9527
5.5412 -0.8935 -0.1580 0.9778
5.5444 -0.4846 -0.1567 0.9780
5.5454 -0.2821 -0.1563 0.9780
5.5458 -0.0803 -0.1562 0.9781
5.5427 0.7297 -0.1574 0.9779
5.5407 0.9354 -0.1582 0.9778
11.7893 2.8841 -0.3418 0.9526
11.7783 3.3394 -0.3447 0.9522
10.8582 -4.3109 -0.5925 0.9543
10.9243 -3.0104 -0.5747 0.9556
5.2583 -1.0452 -0.2719 0.9788
5.2622 -0.8485 -0.2703 0.9789
5.2675 -0.4604 -0.2682 0.9790
5.2690 -0.2681 -0.2676 0.9791
5.2697 -0.0763 -0.2673 0.9791
5.2696 0.1152 -0.2673 0.9791
5.2688 0.3070 -0.2677 0.9791
5.2647 0.6931 -0.2693 0.9790
10.9378 2.6758 -0.5711 0.9559
10.9207 3.0963 -0.5757 0.9556
10.8783 3.9581 -0.5871 0.9547
10.0997 -4.0097 -0.7968 0.9574
10.1584 -3.2008 -0.7809 0.9582
5.0057 -0.9949 -0.3742 0.9797
5.0105 -0.8079 -0.3721 0.9799
5.0144 -0.6225 -0.3705 0.9799
5.0172 -0.4385 -0.3693 0.9800
5.0191 -0.2553 -0.3685 0.9800
5.0200 -0.0727 -0.3681 0.9801
5.0199 0.1098 -0.3682 0.9801
5.0188 0.2924 -0.3686 0.9800
5.0167 0.4757 -0.3695 0.9800
5.0137 0.6600 -0.3708 0.9799
10.1779 2.8857 -0.7757 0.9585
10.1531 3.2816 -0.7824 0.9581
9.3982 -4.1326 -0.9856 0.9596
9.4381 -3.7471 -0.9749 0.9600
9.5054 -2.9950 -0.9568 0.9607
9.5570 -2.2634 -0.9429 0.9613
4.7848 -0.9511 -0.4684 0.9806
4.7906 -0.7724 -0.4659 0.9807
4.7952 -0.5953 -0.4639 0.9808
4.7986 -0.4194 -0.4624 0.9808
4.8019 -0.0696 -0.4611 0.9809
4.8018 0.1050 -0.4611 0.9809
4.7980 0.4550 -0.4627 0.9808
4.7944 0.6312 -0.4643 0.9808
9.5277 2.7013 -0.9508 0.9610
9.4993 3.0703 -0.9584 0.9607
9.4669 3.4445 -0.9672 0.9603
8.9289 -2.8134 -1.1120 0.9630
8.9591 -2.4689 -1.1039 0.9633
4.5817 -0.9107 -0.5549 0.9814
4.5936 -0.5703 -0.5498 0.9815
4.6000 -0.2340 -0.5471 0.9816
4.6012 -0.0666 -0.5466 0.9816
4.5926 0.6046 -0.5503 0.9815
4.5871 0.7744 -0.5526 0.9814
4.5802 0.9456 -0.5555 0.9813
8.9222 2.8838 -1.1138 0.9629
8.8869 3.2335 -1.1233 0.9626
8.2922 -3.6463 -1.2835 0.9641
8.3381 -3.3104 -1.2711 0.9644
8.4158 -2.6517 -1.2502 0.9650
4.5466 -0.9037 -0.6568 0.9814
4.5454 -0.7329 -0.6524 0.9816
4.5445 -0.5642 -0.6488 0.9817
4.5431 0.0993 -0.6439 0.9818
4.5434 0.2647 -0.6448 0.9818
4.5446 0.5983 -0.6495 0.9817
8.4703 2.0721 -1.2355 0.9654
8.4087 2.7178 -1.2521 0.9649
8.3713 3.0459 -1.2622 0.9647
7.8274 -3.4419 -1.4086 0.9659
7.9177 -2.8149 -1.3843 0.9665
7.9889 -2.2015 -1.3651 0.9670
4.5767 -0.9097 -0.7687 0.9813
4.5742 -0.5679 -0.7593 0.9815
4.5734 -0.3997 -0.7563 0.9816
4.5726 0.1000 -0.7535 0.9816
4.5744 0.6022 -0.7601 0.9815
4.5756 0.7724 -0.7644 0.9814
4.5771 0.9449 -0.7699 0.9812
8.0123 1.9601 -1.3589 0.9671
7.9825 2.2632 -1.3669 0.9669
7.9483 2.5690 -1.3761 0.9667
7.9094 2.8779 -1.3866 0.9665
7.4091 -3.2579 -1.5213 0.9676
7.5014 -2.6669 -1.4964 0.9681
7.5403 -2.3759 -1.4860 0.9683
4.6075 -0.9158 -0.8830 0.9811
4.6036 -0.4023 -0.8686 0.9814
4.6027 -0.0667 -0.8652 0.9814
4.6028 0.1006 -0.8653 0.9814
4.6031 0.2682 -0.8667 0.9814
4.6062 0.7776 -0.8780 0.9812
7.5679 2.1457 -1.4785 0.9685
7.4930 2.7263 -1.4987 0.9681
7.1631 -2.2570 -1.5875 0.9698
7.2279 -1.7118 -1.5701 0.9701
4.6390 -0.9221 -0.9998 0.9808
4.6371 -0.7477 -0.9928 0.9810
4.6346 -0.4050 -0.9834 0.9812
4.6338 -0.2357 -0.9808 0.9812
4.6335 -0.0671 -0.9795 0.9812
4.6340 0.2700 -0.9812 0.9812
4.6394 0.9578 -1.0014 0.9808
7.1151 2.5888 -1.6005 0.9695
6.7345 -2.6737 -1.7029 0.9707
6.7791 -2.4101 -1.6909 0.9709
6.8188 -2.1485 -1.6803 0.9711
6.8841 -1.6304 -1.6627 0.9713
4.6712 -0.9284 -1.1193 0.9806
4.6662 -0.4078 -1.1008 0.9809
4.6654 -0.2373 -1.0979 0.9810
4.6650 -0.0676 -1.0965 0.9810
4.6651 0.1020 -1.0967 0.9810
4.6677 0.6145 -1.1065 0.9808
4.6694 0.7883 -1.1130 0.9807
4.6716 0.9644 -1.1211 0.9806
6.8471 1.9413 -1.6726 0.9712
6.7705 2.4634 -1.6933 0.9708
6.3689 -2.8005 -1.8014 0.9717
6.4185 -2.5482 -1.7880 0.9719
6.4631 -2.2978 -1.7760 0.9721
6.5029 -2.0490 -1.7653 0.9722
6.5683 -1.5556 -1.7477 0.9725
4.7042 -0.9350 -1.2418 0.9804
4.6986 -0.4106 -1.2212 0.9807
6.5625 1.6054 -1.7493 0.9725
6.5312 1.8518 -1.7577 0.9723
6.4545 2.3485 -1.7784 0.9720
6.0782 -2.6727 -1.8797 0.9728
6.1276 -2.4327 -1.8664 0.9730
6.1721 -2.1943 -1.8544 0.9731
6.2117 -1.9573 -1.8437 0.9733
6.2771 -1.4867 -1.8261 0.9735
4.7380 -0.9417 -1.3675 0.9801
4.7333 -0.5876 -1.3503 0.9804
4.7309 -0.2407 -1.3410 0.9805
4.7304 -0.0685 -1.3393 0.9805
4.7359 0.7995 -1.3597 0.9802
4.7386 0.9782 -1.3698 0.9801
6.2713 1.5342 -1.8277 0.9735
6.2400 1.7692 -1.8361 0.9734
6.1634 2.2426 -1.8567 0.9731
5.9423 -1.8723 -1.9163 0.9743
5.9770 -1.6471 -1.9069 0.9744
6.0072 -1.4227 -1.8988 0.9745
4.7728 -0.9487 -1.4967 0.9798
4.7699 -0.7691 -1.4861 0.9800
4.7660 -0.4165 -1.4715 0.9802
4.7735 0.9854 -1.4992 0.9798
6.0015 1.4682 -1.9004 0.9745
5.9704 1.6927 -1.9087 0.9744
5.9346 1.9182 -1.9183 0.9742
5.6919 -1.7935 -1.9837 0.9752
5.7264 -1.5780 -1.9744 0.9753
5.7818 -1.1492 -1.9595 0.9755
5.8029 -0.9356 -1.9538 0.9755
5.8196 -0.7225 -1.9493 0.9756
5.8320 -0.5097 -1.9460 0.9756
5.8435 0.1278 -1.9429 0.9757
5.8388 0.3402 -1.9442 0.9756
5.8299 0.5529 -1.9466 0.9756
5.7990 0.9789 -1.9549 0.9755
5.7770 1.1926 -1.9608 0.9754
5.7198 1.6217 -1.9762 0.9753
5.6843 1.8373 -1.9858 0.9751
5.6443 2.0537 -1.9965 0.9750
5.3285 -2.3431 -2.0816 0.9756
5.3765 -2.1346 -2.0687 0.9757
5.4198 -1.9269 -2.0570 0.9759
5.4585 -1.7199 -2.0466 0.9760
5.5222 -1.3079 -2.0294 0.9762
5.5475 -1.1026 -2.0226 0.9763
5.5683 -0.8978 -2.0170 0.9763
5.5849 -0.6934 -2.0125 0.9764
5.5972 -0.4892 -2.0092 0.9764
5.6090 -0.0812 -2.0060 0.9765
5.5645 0.9394 -2.0180 0.9763
5.5166 1.3496 -2.0309 0.9762
5.4510 1.7618 -2.0486 0.9760
5.4114 1.9689 -2.0593 0.9758
5.1591 -2.0483 -2.1272 0.9765
5.2019 -1.8494 -2.1157 0.9766
5.2400 -1.6511 -2.1054 0.9767
5.2737 -1.4533 -2.0963 0.9768
5.3030 -1.2560 -2.0884 0.9769
5.3486 -0.8624 -2.0762 0.9771
5.3650 -0.6661 -2.0717 0.9771
5.3772 -0.4699 -2.0685 0.9771
5.3889 -0.0781 -2.0653 0.9772
5.3884 0.1178 -2.0654 0.9772
5.3750 0.5097 -2.0690 0.9771
5.3448 0.9023 -2.0772 0.9770
5.2974 1.2959 -2.0899 0.9769
5.2673 1.4934 -2.0981 0.9768
4.9087 -2.1585 -2.1946 0.9771
4.9553 -1.9673 -2.1821 0.9772
4.9974 -1.7767 -2.1707 0.9773
5.0351 -1.5865 -2.1606 0.9774
5.0972 -1.2072 -2.1439 0.9776
5.1218 -1.0180 -2.1372 0.9777
5.1584 -0.6404 -2.1274 0.9778
5.1704 -0.4519 -2.1242 0.9778
5.1815 0.1133 -2.1212 0.9778
5.1769 0.3017 -2.1224 0.9778
5.1683 0.4901 -2.1247 0.9778
5.1172 1.0564 -2.1385 0.9777
5.0917 1.2456 -2.1454 0.9776
5.0619 1.4351 -2.1534 0.9775
4.9892 1.8153 -2.1729 0.9773
4.9033 -1.1613 -2.1961 0.9783
4.9276 -0.9794 -2.1895 0.9783
4.9477 -0.7978 -2.1841 0.9784
4.9832 -0.2535 -2.1746 0.9785
4.9864 0.1090 -2.1737 0.9785
4.9734 0.4716 -2.1772 0.9784
4.9607 0.6531 -2.1806 0.9784
4.9230 1.0163 -2.1908 0.9783
4.8686 1.3804 -2.2054 0.9782
4.7970 1.7454 -2.2247 0.9780
4.6236 -1.6438 -2.2714 0.9786
4.6922 -1.2930 -2.2529 0.9788
4.7639 -0.7681 -2.2336 0.9790
4.7796 -0.5934 -2.2294 0.9790
4.7989 -0.2441 -2.2242 0.9790
4.8025 -0.0696 -2.2232 0.9791
4.8021 0.1050 -2.2233 0.9791
4.7892 0.4542 -2.2268 0.9790
4.7602 0.8036 -2.2346 0.9789
4.6530 1.5039 -2.2635 0.9787
4.3675 -1.9205 -2.3404 0.9790
4.4119 -1.7516 -2.3284 0.9791
4.4519 -1.5827 -2.3176 0.9792
4.4877 -1.4140 -2.3080 0.9793
4.5704 -0.9084 -2.2857 0.9795
4.6053 -0.5717 -2.2763 0.9795
4.6167 -0.4035 -2.2732 0.9796
4.6242 -0.2352 -2.2712 0.9796
4.6147 0.4376 -2.2738 0.9796
4.6025 0.6059 -2.2771 0.9795
4.5660 0.9426 -2.2869 0.9794
4.4441 1.6170 -2.3197 0.9792
4.2498 -1.6872 -2.3721 0.9796
4.3824 -1.0379 -2.3364 0.9799
4.4054 -0.8757 -2.3302 0.9800
4.4246 -0.7134 -2.3250 0.9800
4.4397 -0.5512 -2.3209 0.9800
4.4510 -0.3890 -2.3179 0.9801
4.4584 -0.2268 -2.3159 0.9801
4.4619 -0.0646 -2.3150 0.9801
4.4615 0.0975 -2.3151 0.9801
4.4370 0.5841 -2.3217 0.9800
4.3772 1.0708 -2.3378 0.9799
4.0531 -1.7823 -2.4250 0.9800
4.1687 -1.3135 -2.3939 0.9803
4.1993 -1.1572 -2.3857 0.9803
4.2258 -1.0008 -2.3785 0.9804
4.2485 -0.8445 -2.3724 0.9804
4.2672 -0.6881 -2.3674 0.9805
4.3005 -0.2188 -2.3584 0.9806
4.2913 0.4069 -2.3609 0.9805
4.2794 0.5634 -2.3641 0.9805
4.2442 0.8762 -2.3736 0.9804
4.2207 1.0326 -2.3799 0.9804
4.1621 1.3452 -2.3957 0.9802
4.1267 1.5015 -2.4052 0.9802
3.9868 -1.4174 -2.4429 0.9806
4.0505 -1.1162 -2.4257 0.9808
4.1172 -0.6639 -2.4078 0.9809
4.1427 -0.3621 -2.4009 0.9810
4.1532 -0.0602 -2.3981 0.9810
4.1528 0.0908 -2.3982 0.9810
4.1487 0.2417 -2.3993 0.9810
4.1408 0.3927 -2.4014 0.9810
4.1292 0.5436 -2.4045 0.9809
4.1138 0.6945 -2.4087 0.9809
4.0716 0.9961 -2.4201 0.9808
4.0141 1.2974 -2.4355 0.9807
3.9794 1.4479 -2.4449 0.9806
