ply
format ascii 1.0
element vertex 154
property float32 x
property float32 y
property float32 z
property float32 I
end_header
-15.7927 0.2326 0.2668 0.9388
-15.4187 -0.3209 0.2605 0.9402
-16.7649 3.8892 -1.2619 0.9333
-15.8700 1.9352 -1.8991 0.9376
-16.3060 3.7827 -2.7576 0.9344
-15.6409 1.9072 -2.5958 0.9381
-27.7719 -5.5863 -4.6668 0.8915
-16.2402 3.7675 -3.1336 0.9344
-15.9817 3.1136 -3.0604 0.9359
-15.5386 1.8948 -2.9423 0.9383
-29.1163 -3.7304 -5.5175 0.8874
-15.8767 3.0932 -3.4191 0.9360
-28.9575 -3.7100 -6.1711 0.8875
-27.4401 -5.5195 -5.9165 0.8919
-15.9939 3.7104 -3.8588 0.9348
-15.3893 1.8766 -3.6437 0.9383
-28.7976 -3.6896 -6.8234 0.8875
-27.3375 -5.4989 -6.5536 0.8917
-45.7074 12.3302 -15.7365 0.8191
-42.4464 -13.3685 -14.7926 0.8290
-40.2813 -14.2785 -14.2061 0.8351
-38.1203 -15.0575 -13.6241 0.8413
-35.9498 -15.6988 -13.0396 0.8476
-35.3845 -16.9735 -13.0452 0.8475
-33.1703 -17.3872 -12.4490 0.8540
-31.0147 -17.6896 -11.8685 0.8603
-27.4783 9.5524 -10.4033 0.8837
-35.7045 6.9561 -13.0083 0.8568
-36.5657 5.7839 -13.2388 0.8545
-37.7887 3.2503 -13.5634 0.8512
-38.1346 1.9184 -13.6545 0.8503
-38.2700 0.5636 -13.6871 0.8499
-38.2181 -0.7955 -13.6700 0.8501
-37.5096 -3.4564 -13.4706 0.8521
-35.1770 -7.0758 -12.8315 0.8586
-31.7956 -10.0140 -11.9209 0.8680
-30.5242 -12.0571 -11.7364 0.8699
-27.6170 -13.2475 -10.9535 0.8780
-26.1513 -13.7080 -10.5588 0.8821
-23.2602 -14.3854 -9.7803 0.8903
-26.4431 7.1334 -10.4957 0.8893
-27.1805 6.3055 -10.6927 0.8873
-27.8325 5.4225 -10.8664 0.8856
-28.3933 4.4912 -11.0161 0.8841
-29.1757 2.5095 -11.2219 0.8821
-29.4784 0.4341 -11.2979 0.8814
-29.4593 -0.6132 -11.2918 0.8814
-28.6919 -3.6760 -11.0851 0.8835
-27.6199 -5.5558 -10.7965 0.8863
-28.0462 -6.6865 -11.0491 0.8838
-27.4113 -7.5738 -10.8981 0.8853
-25.6135 -9.0793 -10.4140 0.8901
-24.6356 -9.7311 -10.1507 0.8927
-21.5230 -11.2819 -9.3124 0.9011
-20.4592 -11.6692 -9.0260 0.9040
-19.3966 -11.9960 -8.7398 0.9069
-20.5007 7.1268 -8.8830 0.9105
-22.2655 5.1653 -9.3547 0.9059
-23.7369 2.0417 -9.7508 0.9022
-23.9048 1.2025 -9.7960 0.9017
-23.9856 0.3532 -9.8178 0.9015
-23.6996 -2.1839 -9.7408 0.9022
-23.5638 -3.0190 -9.7229 0.9024
-24.1615 -3.9727 -10.0215 0.8996
-23.7309 -4.7735 -9.9070 0.9007
-22.6404 -6.2556 -9.6133 0.9035
-22.0052 -6.9305 -9.4423 0.9051
-19.8329 -8.6608 -8.8573 0.9107
-18.2388 -9.5604 -8.4280 0.9148
-17.4191 -9.9352 -8.2073 0.9170
-16.5926 -10.2618 -7.9847 0.9191
-17.4831 6.0777 -8.0667 0.9224
-18.4435 4.9754 -8.3253 0.9200
-19.2231 3.7451 -8.5353 0.9181
-19.5334 3.0898 -8.6188 0.9173
-19.7854 2.4126 -8.6867 0.9167
-20.7730 -1.1718 -9.0676 0.9132
-20.8852 -1.9245 -9.1407 0.9125
-20.6745 -2.6488 -9.0840 0.9131
-20.0650 -4.0361 -8.9198 0.9146
-19.6738 -4.6904 -8.8145 0.9155
-19.2310 -5.3136 -8.6952 0.9166
-18.2111 -6.4553 -8.4206 0.9191
-17.0482 -7.4447 -8.1074 0.9220
-16.4266 -7.8796 -7.9400 0.9236
-15.7853 -8.2743 -7.7673 0.9252
-14.4629 -8.9447 -7.4112 0.9285
-16.8482 2.6650 -7.8957 0.9276
-18.1298 0.2670 -8.3929 0.9232
-18.1549 -0.3779 -8.4054 0.9231
-18.0955 -1.0208 -8.3894 0.9232
-17.8161 -2.2826 -8.3142 0.9239
-17.5993 -2.8937 -8.2558 0.9244
-17.3341 -3.4868 -8.1844 0.9250
-17.0235 -4.0586 -8.1008 0.9258
-16.6707 -4.6062 -8.0058 0.9266
-14.9127 -6.5122 -7.5324 0.9308
-14.4063 -6.9105 -7.3960 0.9320
-13.3407 -7.6090 -7.1090 0.9345
-13.4332 4.6698 -6.9761 0.9386
-14.0667 3.7947 -7.1467 0.9372
-14.5741 2.8394 -7.2833 0.9360
-15.3534 1.8722 -7.5870 0.9334
-15.8912 0.2340 -7.7959 0.9316
-15.8874 -0.3307 -7.7948 0.9316
-15.8392 -0.8935 -7.7818 0.9318
-15.7471 -1.4510 -7.7570 0.9320
-15.6121 -2.0002 -7.7207 0.9323
-14.9651 -3.5678 -7.5465 0.9338
-14.6758 -4.0550 -7.4686 0.9344
-14.3539 -4.5207 -7.3819 0.9352
-12.7990 -6.1395 -6.9632 0.9387
-11.9038 -6.7895 -6.7221 0.9408
-11.9977 4.1708 -6.5895 0.9444
-12.2767 3.7846 -6.6647 0.9438
-12.9395 3.0017 -6.8910 0.9419
-13.7364 2.1728 -7.2148 0.9393
-13.8810 1.6926 -7.2545 0.9389
-13.9874 1.2031 -7.2832 0.9387
-13.9717 -1.2875 -7.2790 0.9387
-13.8593 -1.7757 -7.2487 0.9390
-13.0760 -3.6129 -7.0378 0.9407
-12.8054 -4.0331 -6.9649 0.9413
-12.5090 -4.4341 -6.8851 0.9419
-11.8482 -5.1740 -6.7071 0.9434
-11.4886 -5.5109 -6.6103 0.9442
-11.1127 -5.8250 -6.5090 0.9450
-10.7230 -6.1160 -6.4041 0.9459
-11.7889 3.1802 -6.6877 0.9458
-12.0034 2.7846 -6.7489 0.9454
-12.3290 1.9501 -6.8366 0.9447
-12.4491 1.5180 -6.8689 0.9444
-12.5394 1.0785 -6.8933 0.9442
-12.5992 0.6338 -6.9093 0.9441
-12.6251 -0.2628 -6.9163 0.9440
-12.5911 -0.7103 -6.9072 0.9441
-12.5261 -1.1542 -6.8897 0.9442
-12.4306 -1.5926 -6.8640 0.9444
-12.3055 -2.0233 -6.8303 0.9447
-11.2779 -3.9977 -6.5535 0.9469
-10.7093 -4.6766 -6.4004 0.9481
-10.0731 -5.2801 -6.2291 0.9495
-9.7346 -5.5523 -6.1379 0.9502
-10.8738 2.5226 -6.4447 0.9497
-11.3365 0.9751 -6.5693 0.9488
-11.3880 0.5729 -6.5832 0.9487
-11.4127 0.1681 -6.5898 0.9486
-11.3811 -0.6420 -6.5813 0.9487
-11.1348 -1.8308 -6.5150 0.9492
-10.6660 -2.9471 -6.3888 0.9502
-10.4652 -3.2960 -6.3347 0.9506
-10.0051 -3.9521 -6.2108 0.9515
-8.8942 -5.0730 -5.9116 0.9538
-8.5862 -5.3102 -5.8287 0.9544
