ply
format ascii 1.0
element vertex 224
property float32 x
property float32 y
property float32 z
property float32 I
end_header
-12.3160 33.1724 2.1942 0.8678
-14.0337 37.7992 1.5899 0.8509
-14.4127 34.8708 1.4878 0.8598
-16.8931 45.5008 0.8199 0.8235
-17.3219 37.9326 0.7044 0.8463
-17.4901 34.8792 0.6591 0.8555
-17.6355 32.1865 0.6199 0.8634
-17.7621 29.7883 0.5858 0.8704
-18.8329 29.1175 0.5857 0.8705
-20.8446 38.0434 -0.2442 0.8407
-20.7359 32.0598 -0.2150 0.8584
-20.6923 29.5713 -0.2032 0.8656
-22.0141 29.1399 -0.2056 0.8641
-25.0526 42.0149 -1.3774 0.8222
-24.3851 34.8487 -1.1976 0.8435
-27.9103 31.8313 -2.1470 0.8440
-29.6248 29.1934 -2.1093 0.8466
-33.0517 35.0336 -3.5315 0.8243
-32.2756 31.8055 -3.3225 0.8338
-31.5318 28.8856 -3.1354 0.8424
-34.3140 29.2082 -3.3040 0.8347
-29.7012 29.2687 -4.0033 0.8457
-10.0446 13.2959 -1.9794 0.9351
-29.4587 29.0297 -4.9128 0.8465
-33.9725 28.9175 -6.3212 0.8351
-36.6271 28.9438 -6.6145 0.8281
-16.9714 45.7117 -8.0328 0.8206
-29.3002 28.8736 -6.7768 0.8464
-31.5430 28.8959 -7.0472 0.8408
-38.4861 28.1976 -7.8598 0.8241
-38.6819 24.2218 -7.5186 0.8311
-12.7713 34.3988 -6.8969 0.8613
-10.0578 24.3345 -4.9492 0.8984
-18.9053 41.3999 -8.5545 0.8309
-31.5459 28.8985 -8.0413 0.8402
-38.2067 27.9930 -8.9026 0.8247
-38.2775 25.9564 -8.6929 0.8284
-38.3424 24.0092 -8.5032 0.8318
-39.8066 22.9511 -8.6366 0.8294
-10.2204 27.5282 -6.2070 0.8869
-9.9828 24.1529 -5.5243 0.8987
-14.4362 31.6133 -7.3462 0.8675
-24.1739 40.5412 -9.9774 0.8245
-9.6626 13.8089 -3.5626 0.9334
-31.5488 28.9012 -9.0440 0.8395
-36.6380 28.9524 -9.8708 0.8262
-37.9290 27.7896 -9.9391 0.8251
-38.0058 25.7721 -9.7066 0.8288
-38.0761 23.8424 -9.4963 0.8322
-38.1404 21.9904 -9.3062 0.8353
-18.6407 9.0076 -4.3762 0.9188
-13.5571 27.0358 -7.1081 0.8831
-15.7374 28.7223 -7.6973 0.8741
-21.1932 32.7667 -9.1714 0.8518
-24.6533 35.2320 -10.1062 0.8380
-28.7801 38.0960 -11.2212 0.8219
-29.3079 28.8812 -9.6705 0.8444
-31.5517 28.9038 -10.0565 0.8388
-33.9854 28.9284 -10.4892 0.8324
-8.4519 20.4489 -5.7290 0.9126
-12.8239 23.4048 -6.9100 0.8956
-14.6364 24.5462 -7.3995 0.8886
-14.4202 22.2950 -6.8748 0.8961
-18.9869 27.1343 -8.5747 0.8721
-32.1553 34.0834 -12.1323 0.8240
-30.6258 28.0556 -10.7538 0.8423
-33.0417 28.1251 -11.2347 0.8359
-37.4661 25.4061 -11.7207 0.8294
-37.5469 23.5111 -11.4702 0.8327
-37.6207 21.6908 -11.2438 0.8357
-38.8835 18.7895 -11.1815 0.8366
-43.6012 19.1426 -12.3292 0.8214
-6.2879 16.9363 -5.1143 0.9276
-7.2699 17.5892 -5.3879 0.9239
-8.3519 18.2894 -5.6919 0.9198
-24.1961 25.6470 -9.9817 0.8637
-27.0620 26.6679 -10.7558 0.8539
-30.2785 27.7374 -11.6246 0.8431
-33.9010 28.8565 -12.6031 0.8310
-37.1033 27.1846 -13.0212 0.8260
-37.1974 25.2239 -12.7231 0.8296
-37.3619 21.5415 -12.2090 0.8359
-37.4335 19.8021 -11.9886 0.8386
-37.4988 18.1204 -11.7901 0.8410
-5.5200 14.8679 -4.8781 0.9358
-6.3529 15.3706 -5.1156 0.9328
-7.2550 15.8876 -5.3721 0.9295
-8.2117 16.3758 -5.6346 0.9262
-10.3413 17.3430 -6.2107 0.9190
-9.6796 14.9657 -5.4820 0.9281
-11.1894 15.9908 -6.0030 0.9216
-11.3871 15.0731 -5.8104 0.9240
-16.7496 16.5057 -7.2329 0.9063
-23.4391 21.4720 -9.7771 0.8754
-25.2195 19.9292 -9.8866 0.8741
-32.6774 18.8407 -11.6018 0.8540
-37.1791 19.6675 -12.9370 0.8386
-5.6081 13.5685 -4.8803 0.9400
-6.3550 13.9169 -5.0855 0.9375
-7.1547 14.2681 -5.3057 0.9349
-8.9395 14.9921 -5.8022 0.9291
-12.1266 16.0573 -6.6884 0.9187
-13.3376 16.3783 -7.0211 0.9148
-17.3981 17.1448 -8.1194 0.9022
-18.9307 17.3420 -8.5339 0.8974
-24.1076 17.6630 -9.9342 0.8816
-18.8572 11.8080 -7.3957 0.9105
-27.4723 12.0614 -9.9733 0.8812
-4.4301 11.9322 -4.5517 0.9474
-5.6828 12.4446 -4.8923 0.9435
-6.3662 12.6956 -5.0789 0.9415
-7.0898 12.9395 -5.2763 0.9392
-8.6656 13.3978 -5.7060 0.9345
-9.5220 13.6076 -5.9393 0.9319
-11.3802 13.9748 -6.4449 0.9263
-15.7126 14.3940 -7.6203 0.9135
-18.1865 14.3715 -8.2891 0.9062
-19.4945 14.2831 -8.6423 0.9024
-18.5612 11.6226 -7.8315 0.9112
-18.6174 9.8485 -7.5319 0.9144
-26.5663 12.8374 -10.5513 0.8822
-4.0382 10.8766 -4.4461 0.9515
-7.0149 11.7644 -5.2490 0.9430
-9.9754 12.2496 -6.0539 0.9346
-10.8000 12.3172 -6.2777 0.9322
-12.5493 12.3665 -6.7518 0.9273
-13.4720 12.3414 -7.0016 0.9247
-14.4245 12.2781 -7.2591 0.9221
-16.4078 12.0215 -7.7948 0.9166
-17.4311 11.8202 -8.0709 0.9137
-21.6028 10.4390 -9.1945 0.9023
-4.1869 10.1301 -4.4862 0.9537
-4.6909 10.2725 -4.6219 0.9524
-5.2173 10.4044 -4.7636 0.9509
-5.7664 10.5243 -4.9115 0.9495
-6.9349 10.7221 -5.2262 0.9463
-8.1982 10.8519 -5.5664 0.9429
-8.8652 10.8864 -5.7460 0.9411
-9.5565 10.8990 -5.9326 0.9393
-10.2723 10.8882 -6.1265 0.9374
-11.0092 10.8489 -6.3259 0.9354
-11.7658 10.7784 -6.5306 0.9334
-13.3288 10.5328 -6.9528 0.9292
-14.1297 10.3525 -7.1690 0.9271
-14.9386 10.1300 -7.3871 0.9250
-15.7513 9.8631 -7.6062 0.9228
-16.5644 9.5504 -7.8255 0.9207
-17.3694 9.1884 -8.0423 0.9186
-17.6324 8.5204 -8.0149 0.9188
-3.8532 9.3226 -4.3963 0.9569
-4.7778 9.5280 -4.6453 0.9546
-5.2670 9.6127 -4.7770 0.9533
-5.7741 9.6836 -4.9136 0.9520
-6.2993 9.7393 -5.0550 0.9506
-6.8422 9.7782 -5.2012 0.9493
-7.4026 9.7988 -5.3521 0.9478
-7.9799 9.7992 -5.5076 0.9464
-9.1818 9.7324 -5.8312 0.9433
-15.6405 7.5578 -7.5705 0.9270
-3.9745 8.7036 -4.4290 0.9587
-5.2932 8.8770 -4.7841 0.9555
-6.2419 8.9203 -5.0395 0.9531
-6.7359 8.9163 -5.1726 0.9519
-7.2423 8.8934 -5.3089 0.9507
-8.8251 8.6966 -5.7352 0.9469
-9.3697 8.5834 -5.8818 0.9455
-9.9199 8.4438 -6.0300 0.9442
-10.4737 8.2766 -6.1791 0.9429
-11.0287 8.0804 -6.3286 0.9415
-13.7198 6.6297 -7.0533 0.9350
-14.2171 6.2418 -7.1872 0.9339
-3.3094 8.0069 -4.2499 0.9621
-4.0710 8.1185 -4.4550 0.9603
-5.2983 8.1917 -4.7855 0.9575
-7.0747 8.0686 -5.2638 0.9533
-7.5388 7.9909 -5.3888 0.9522
-8.4827 7.7708 -5.6430 0.9500
-10.8532 6.7960 -6.2813 0.9445
-12.1911 5.8910 -6.6416 0.9415
-2.7503 7.4077 -4.0993 0.9650
-4.8964 7.5703 -4.6772 0.9602
-5.6797 7.5182 -4.8882 0.9584
-6.0815 7.4680 -4.9964 0.9575
-6.4889 7.4005 -5.1061 0.9566
-7.3165 7.2100 -5.3289 0.9548
-8.1525 6.9394 -5.5541 0.9529
-8.5698 6.7721 -5.6665 0.9520
-9.3944 6.3704 -5.8885 0.9501
-10.1920 5.8763 -6.1033 0.9484
-11.2978 4.9602 -6.4011 0.9459
-2.5750 6.9358 -4.0521 0.9668
-2.8840 6.9777 -4.1353 0.9662
-3.2010 7.0098 -4.2207 0.9655
-3.8582 7.0415 -4.3976 0.9640
-4.5436 7.0249 -4.5822 0.9626
-4.8958 6.9966 -4.6771 0.9618
-5.2534 6.9539 -4.7734 0.9610
-5.9819 6.8223 -4.9695 0.9595
-6.7219 6.6240 -5.1688 0.9579
-7.8330 6.1899 -5.4680 0.9555
-8.1981 6.0065 -5.5663 0.9547
-8.9106 5.5796 -5.7582 0.9532
-9.2544 5.3357 -5.8508 0.9524
-9.5873 5.0716 -5.9404 0.9517
-9.9074 4.7875 -6.0266 0.9511
-10.2126 4.4837 -6.1088 0.9504
-2.4172 6.5106 -4.0096 0.9684
-2.7038 6.5418 -4.0868 0.9678
-2.9971 6.5634 -4.1658 0.9672
-3.2970 6.5748 -4.2465 0.9666
-3.6028 6.5755 -4.3289 0.9660
-4.2312 6.5418 -4.4981 0.9647
-4.8781 6.4571 -4.6723 0.9633
-5.5383 6.3164 -4.8501 0.9619
-5.8713 6.2234 -4.9398 0.9613
-6.2050 6.1146 -5.0296 0.9606
-6.5382 5.9895 -5.1194 0.9599
-6.8699 5.8476 -5.2087 0.9592
-7.1987 5.6886 -5.2972 0.9585
-7.5232 5.5121 -5.3846 0.9578
-7.8421 5.3178 -5.4705 0.9572
-8.1539 5.1058 -5.5544 0.9565
-8.7496 4.6285 -5.7149 0.9553
-9.6852 4.2522 -6.1070 0.9523
