ply
format ascii 1.0
element vertex 211
property float32 x
property float32 y
property float32 z
property float32 I
end_header
-5.1400 -14.1007 1.9544 0.9413
-4.8429 -14.9310 2.0440 0.9386
-5.0794 -13.9346 1.5926 0.9421
-4.4646 -15.6594 1.7485 0.9366
-5.0308 -13.8012 1.2435 0.9427
-4.4383 -15.5671 1.3703 0.9371
-4.9537 -13.5899 0.5704 0.9437
-4.6678 -14.3914 0.5966 0.9412
-4.9113 -13.4736 0.2422 0.9442
-4.3054 -15.1009 0.2652 0.9391
-3.9528 -16.0253 0.2788 0.9361
-4.8619 -13.3380 -0.0799 0.9448
-3.9072 -15.8404 -0.0919 0.9368
-17.2633 -20.1418 -1.3453 0.8992
-4.4906 -13.8448 -0.7381 0.9434
-4.1766 -14.6492 -0.7726 0.9408
-17.1552 -20.0156 -1.9329 0.8997
-17.0768 -19.9242 -2.5193 0.8999
-16.5363 -20.7575 -2.5479 0.8988
-16.0420 -21.6913 -2.5901 0.8973
-2.6395 -42.3058 -4.0695 0.8434
-15.9199 -21.5262 -3.1803 0.8978
-5.4256 -40.2106 -4.8197 0.8492
-2.0501 -32.8587 -3.9108 0.8758
-16.8748 -19.6884 -3.6741 0.9005
-15.8453 -21.4253 -3.7757 0.8979
-10.4192 -42.2409 -6.1645 0.8388
-4.2498 -31.4960 -4.5031 0.8795
-2.8568 -28.9937 -4.1280 0.8890
-15.8625 -43.5164 -7.6303 0.8288
-10.1303 -35.5313 -6.0867 0.8609
-8.0235 -32.5285 -5.5193 0.8730
-6.2619 -29.9767 -5.0449 0.8833
-4.7688 -27.7767 -4.6429 0.8920
-3.4888 -25.8565 -4.2982 0.8996
-2.3808 -24.1626 -3.9998 0.9063
-1.4134 -22.6542 -3.7393 0.9121
-12.0149 -32.9612 -6.5942 0.8669
-9.8805 -30.4624 -6.0194 0.8778
-8.0690 -28.3016 -5.5316 0.8871
-5.1677 -24.7387 -4.7503 0.9023
-3.9911 -23.2469 -4.4334 0.9085
-2.0386 -20.6895 -3.9076 0.9189
-1.2217 -19.5812 -3.6877 0.9233
-18.9534 -35.2646 -8.4627 0.8490
-16.0324 -32.5832 -7.6760 0.8620
-11.4661 -28.2591 -6.4464 0.8828
-9.6534 -26.4828 -5.9582 0.8912
-4.3935 -21.0324 -4.5418 0.9159
-1.7805 -18.0700 -3.8381 0.9285
-27.9171 -37.7483 -11.0343 0.8246
-22.9406 -33.4688 -9.5364 0.8464
-19.7942 -31.2258 -8.6891 0.8591
-17.1057 -29.2570 -7.9651 0.8700
-14.7863 -27.5112 -7.3405 0.8796
-12.7684 -25.9497 -6.7971 0.8880
-10.9998 -24.5422 -6.3208 0.8954
-9.4396 -23.2647 -5.9007 0.9020
-8.0551 -22.0981 -5.5278 0.9079
-5.7131 -20.0384 -4.8972 0.9179
-2.9997 -17.4722 -4.1665 0.9297
-1.5787 -16.0221 -3.7838 0.9360
-17.8017 -25.9715 -8.1525 0.8780
-15.6720 -24.7230 -7.5790 0.8861
-13.7825 -23.5732 -7.0702 0.8933
-12.0980 -22.5095 -6.6166 0.8998
-9.2332 -20.6005 -5.8451 0.9109
-8.0090 -19.7389 -5.5154 0.9157
-6.9004 -18.9304 -5.2169 0.9201
-5.8932 -18.1695 -4.9457 0.9241
-4.9755 -17.4514 -4.6985 0.9278
-4.1370 -16.7720 -4.4727 0.9311
-3.3689 -16.1277 -4.2659 0.9342
-2.6637 -15.5154 -4.0760 0.9370
-0.8637 -13.8433 -3.5913 0.9443
-26.4244 -26.6897 -10.6324 0.8554
-18.9764 -23.8205 -8.6217 0.8811
-15.2370 -20.6029 -7.2543 0.8989
-10.2185 -19.0124 -6.1104 0.9142
-9.0305 -18.3530 -5.7905 0.9185
-6.9443 -17.1147 -5.2287 0.9261
-6.0264 -16.5327 -4.9815 0.9295
-5.1809 -15.9733 -4.7538 0.9326
-2.3926 -13.9363 -4.0030 0.9429
-0.7933 -12.7141 -3.6063 0.9484
-20.9466 -21.1568 -9.1572 0.8829
-19.0462 -20.6715 -8.6455 0.8890
-17.2929 -20.1764 -8.1733 0.8948
-11.0049 -17.3606 -6.3222 0.9176
-9.8756 -16.8908 -6.0181 0.9214
-8.8292 -16.4275 -5.7363 0.9249
-6.9576 -15.5233 -5.2323 0.9313
-5.3412 -14.6529 -4.7970 0.9368
-3.9397 -13.8184 -4.4196 0.9416
-3.3259 -13.4835 -4.2715 0.9435
-2.2527 -13.1215 -4.0949 0.9458
-1.2258 -12.4411 -3.8451 0.9490
-14.5611 -16.9890 -7.4377 0.9100
-13.3107 -16.7084 -7.1009 0.9139
-12.1369 -16.4110 -6.7849 0.9176
-10.0023 -15.7789 -6.2100 0.9243
-8.1205 -15.1090 -5.7017 0.9302
-6.4650 -14.4244 -5.2543 0.9355
-3.7288 -13.0786 -4.5206 0.9443
-2.5926 -12.4114 -4.2147 0.9480
-2.0744 -12.0827 -4.0751 0.9496
-1.1269 -11.4365 -3.8200 0.9527
-0.6937 -11.1194 -3.7033 0.9541
-14.7142 -14.8619 -7.4789 0.9150
-13.6055 -14.7665 -7.1803 0.9182
-12.5488 -14.6412 -6.8958 0.9213
-11.5434 -14.4901 -6.6250 0.9243
-10.5880 -14.3167 -6.3678 0.9271
-8.0063 -13.6936 -5.6725 0.9348
-7.2344 -13.4602 -5.4646 0.9371
-5.1573 -12.7106 -4.9053 0.9434
-3.3976 -11.9171 -4.4315 0.9487
-2.8731 -11.6478 -4.2902 0.9503
-1.4621 -10.8363 -3.9102 0.9546
-1.0411 -10.5662 -3.7969 0.9559
-0.6425 -10.2972 -3.6895 0.9571
-12.7692 -12.8974 -6.9551 0.9252
-11.8697 -12.8826 -6.7129 0.9277
-5.8734 -11.9368 -5.0982 0.9446
-5.2668 -11.7509 -4.9348 0.9463
-2.6422 -10.7119 -4.2280 0.9538
-2.1912 -10.4896 -4.1066 0.9551
-1.7622 -10.2644 -3.9910 0.9564
-1.3543 -10.0370 -3.8812 0.9575
-11.2555 -11.3685 -6.5475 0.9332
-10.5060 -11.4025 -6.3457 0.9352
-9.0736 -11.3898 -5.9599 0.9390
-8.3923 -11.3478 -5.7765 0.9408
-6.4930 -11.1054 -5.2650 0.9459
-5.3464 -10.8657 -4.9562 0.9490
-4.2922 -10.5786 -4.6724 0.9519
-3.7985 -10.4206 -4.5394 0.9532
-3.3260 -10.2546 -4.4122 0.9545
-2.8743 -10.0815 -4.2905 0.9557
-2.4425 -9.9024 -4.1742 0.9569
-0.9006 -9.1403 -3.7590 0.9611
-0.5579 -8.9417 -3.6667 0.9620
-10.0429 -10.1437 -6.2209 0.9396
-9.4054 -10.2080 -6.0493 0.9412
-7.5844 -10.2553 -5.5589 0.9459
-5.3993 -10.0459 -4.9705 0.9515
-4.8986 -9.9557 -4.8357 0.9527
-4.4162 -9.8531 -4.7057 0.9540
-3.5050 -9.6156 -4.4604 0.9563
-3.0758 -9.4830 -4.3448 0.9574
-2.6635 -9.3423 -4.2338 0.9585
-1.8885 -9.0405 -4.0250 0.9605
-1.1761 -8.7165 -3.8332 0.9623
-0.5225 -8.3753 -3.6572 0.9640
-9.0486 -9.1395 -5.9532 0.9449
-7.4252 -9.3206 -5.5160 0.9488
-5.4284 -9.2845 -4.9783 0.9537
-4.5132 -9.1723 -4.7319 0.9559
-4.0773 -9.0970 -4.6145 0.9570
-3.6560 -9.0104 -4.5010 0.9580
-3.2491 -8.9134 -4.3914 0.9590
-2.8566 -8.8071 -4.2857 0.9600
-1.7631 -8.4405 -3.9913 0.9627
-1.4258 -8.3049 -3.9005 0.9635
-1.1015 -8.1638 -3.8131 0.9643
-0.7900 -8.0177 -3.7292 0.9651
-0.4908 -7.8672 -3.6487 0.9659
-8.2179 -8.3005 -5.7295 0.9493
-7.7350 -8.3951 -5.5995 0.9504
-6.3286 -8.5572 -5.2207 0.9537
-5.8772 -8.5745 -5.0992 0.9547
-5.4359 -8.5754 -4.9803 0.9558
-4.5857 -8.5321 -4.7514 0.9578
-4.1775 -8.4902 -4.6415 0.9587
-3.0236 -8.2949 -4.3307 0.9614
-2.6628 -8.2097 -4.2336 0.9623
-1.0345 -7.6673 -3.7951 0.9661
-0.7429 -7.5402 -3.7166 0.9668
-0.4622 -7.4082 -3.6410 0.9675
-7.5128 -7.5883 -5.5396 0.9530
-7.0852 -7.6898 -5.4245 0.9540
-6.6614 -7.7722 -5.3104 0.9549
-6.2427 -7.8363 -5.1976 0.9559
-5.4242 -7.9135 -4.9772 0.9577
-1.8537 -7.5155 -4.0157 0.9657
-1.5506 -7.4231 -3.9341 0.9664
-1.2574 -7.3240 -3.8551 0.9671
-0.9740 -7.2186 -3.7788 0.9677
-0.4362 -6.9912 -3.6340 0.9689
-6.1441 -7.1686 -5.1710 0.9579
-5.7674 -7.2397 -5.0696 0.9587
-5.0274 -7.3347 -4.8703 0.9603
-4.3102 -7.3721 -4.6772 0.9618
-3.9617 -7.3711 -4.5833 0.9626
-3.2869 -7.3336 -4.4016 0.9640
-2.6440 -7.2536 -4.2285 0.9654
-2.3351 -7.1993 -4.1453 0.9661
-2.0346 -7.1365 -4.0644 0.9667
-1.4596 -6.9873 -3.9095 0.9680
-0.4124 -6.6104 -3.6276 0.9702
-6.3784 -6.4424 -5.2341 0.9590
-6.0343 -6.5492 -5.1415 0.9597
-4.6768 -6.8232 -4.7759 0.9625
-4.3463 -6.8565 -4.6869 0.9632
-3.0783 -6.8683 -4.3455 0.9658
-2.7770 -6.8441 -4.2643 0.9665
-2.1950 -6.7675 -4.1076 0.9677
-1.9148 -6.7163 -4.0321 0.9683
-1.6421 -6.6571 -3.9587 0.9688
-0.8686 -6.4376 -3.7504 0.9704
-0.3906 -6.2608 -3.6217 0.9714
