ply
format ascii 1.0
element vertex 173
property float32 x
property float32 y
property float32 z
property float32 I
end_header
-15.8153 0.2915 0.2672 0.9387
-15.4286 -0.2693 0.2607 0.9401
-16.8006 4.0000 -1.2663 0.9331
-16.5719 3.3222 -1.2393 0.9345
-16.1022 2.0410 -1.1901 0.9370
-16.0141 2.0299 -1.5497 0.9372
-26.5842 -7.3183 -2.6472 0.8951
-16.5856 3.9488 -2.0252 0.9336
-16.3201 3.2717 -1.9772 0.9352
-15.6759 1.4178 -1.8697 0.9386
-28.0573 -5.5960 -3.3985 0.8911
-16.2484 3.2574 -2.3480 0.9352
-15.7791 2.0001 -2.2536 0.9378
-15.5801 1.4091 -2.2166 0.9388
-16.3454 3.8916 -2.7680 0.9342
-15.6731 1.9866 -2.6026 0.9380
-27.8081 -5.5463 -4.6713 0.8914
-16.2734 3.8744 -3.1443 0.9342
-15.5628 1.9727 -2.9486 0.9381
-27.6430 -5.5134 -5.2981 0.8916
-16.1664 3.8490 -3.5128 0.9343
-15.9102 3.1896 -3.4300 0.9358
-15.4883 1.9632 -3.3001 0.9382
-16.0286 3.8162 -3.8724 0.9345
-15.8068 3.1688 -3.7889 0.9359
-15.4176 1.9543 -3.6525 0.9381
-27.3615 -5.4572 -6.5572 0.8917
-40.1814 15.9217 -13.2938 0.8345
-34.7279 -23.3318 -12.8684 0.8394
-37.1735 14.7298 -13.2914 0.8449
-43.2613 13.6434 -15.0785 0.8260
-44.6660 -12.2959 -15.3995 0.8226
-42.4836 -13.3522 -14.8028 0.8289
-40.2966 -14.2725 -14.2102 0.8351
-35.9231 -15.7058 -13.0324 0.8477
-35.3352 -16.9838 -13.0320 0.8477
-28.8262 -17.9003 -11.2791 0.8667
-26.8089 -18.0115 -10.7359 0.8727
-24.8814 -18.0449 -10.2168 0.8785
-32.1410 10.1364 -12.0519 0.8666
-36.4462 5.9552 -13.2063 0.8548
-37.1864 4.7136 -13.4045 0.8528
-37.7329 3.4128 -13.5486 0.8513
-38.2651 0.7055 -13.6862 0.8499
-36.9218 -4.6431 -13.3075 0.8538
-33.0515 -9.0986 -12.2591 0.8645
-31.8169 -9.9997 -11.9267 0.8679
-30.5205 -12.0588 -11.7354 0.8699
-29.0617 -12.7060 -11.3425 0.8739
-23.1875 -14.3988 -9.7607 0.8905
-23.6314 9.3638 -9.7410 0.8968
-25.4677 8.0318 -10.2335 0.8919
-28.3203 4.6275 -10.9968 0.8843
-29.1408 2.6356 -11.2129 0.8822
-29.3729 1.5970 -11.2729 0.8816
-29.4751 0.5434 -11.2973 0.8814
-29.4657 -0.5142 -11.2935 0.8814
-29.0900 -2.6022 -11.1924 0.8824
-28.2366 -4.5853 -10.9625 0.8847
-27.4335 -7.5521 -10.9041 0.8852
-24.6331 -9.7327 -10.1500 0.8927
-23.6082 -10.3217 -9.8740 0.8955
-22.5567 -10.8419 -9.5908 0.8983
-18.2785 -12.2804 -8.4387 0.9100
-20.3728 7.2383 -8.8487 0.9108
-22.6742 4.5455 -9.4646 0.9049
-23.0976 3.7741 -9.5787 0.9038
-23.8900 1.2989 -9.7920 0.9018
-23.9813 0.4421 -9.8166 0.9015
-23.8937 -1.2755 -9.7930 0.9018
-24.1781 -3.9262 -10.0251 0.8995
-23.7528 -4.7375 -9.9129 0.9006
-22.0163 -6.9195 -9.4453 0.9051
-19.8234 -8.6669 -8.8548 0.9107
-19.0280 -9.1458 -8.6406 0.9128
-17.3850 -9.9497 -8.1981 0.9171
-15.7144 -10.5576 -7.7482 0.9214
-14.8823 -10.7932 -7.5242 0.9236
-16.8360 6.6712 -7.8925 0.9240
-17.8952 5.6436 -8.1777 0.9214
-18.3673 5.0757 -8.3048 0.9202
-19.1707 3.8432 -8.5212 0.9182
-19.9558 1.8049 -8.7326 0.9163
-20.6772 -1.1038 -9.0243 0.9136
-20.8984 -1.8695 -9.1442 0.9125
-20.4169 -3.3154 -9.0146 0.9137
-20.0816 -4.0053 -8.9243 0.9145
-19.6889 -4.6671 -8.8185 0.9155
-18.7502 -5.8930 -8.5658 0.9178
-18.2150 -6.4515 -8.4216 0.9191
-17.0407 -7.4503 -8.1054 0.9221
-16.4127 -7.8888 -7.9363 0.9236
-15.7647 -8.2862 -7.7618 0.9252
-13.7496 -9.2377 -7.2192 0.9303
-13.0688 -9.4780 -7.0358 0.9320
-15.1331 5.3767 -7.4339 0.9317
-17.1813 1.5540 -7.9854 0.9268
-17.2880 0.9399 -8.0142 0.9265
-18.1026 -0.9664 -8.3914 0.9232
-17.6127 -2.8601 -8.2594 0.9244
-17.3473 -3.4599 -8.1880 0.9250
-17.0355 -4.0382 -8.1040 0.9257
-16.6806 -4.5920 -8.0084 0.9266
-15.3952 -6.0828 -7.6623 0.9296
-14.3949 -6.9189 -7.3929 0.9320
-13.3180 -7.6221 -7.1029 0.9346
-12.7604 -7.9238 -6.9528 0.9359
-11.6243 -8.4304 -6.6468 0.9387
-13.3666 4.7491 -6.9582 0.9388
-13.7061 4.3225 -7.0496 0.9380
-14.7479 2.4098 -7.3302 0.9356
-15.7343 1.4231 -7.7495 0.9320
-15.8890 0.2929 -7.7953 0.9316
-15.8897 -0.2773 -7.7954 0.9316
-15.4464 -2.5083 -7.6761 0.9327
-15.2299 -3.0376 -7.6178 0.9331
-14.6839 -4.0423 -7.4707 0.9344
-14.0048 -4.9603 -7.2879 0.9359
-13.6228 -5.3825 -7.1850 0.9368
-13.2166 -5.7784 -7.0756 0.9378
-12.7895 -6.1473 -6.9606 0.9387
-10.4454 -7.5754 -6.3294 0.9441
-11.6325 4.6093 -6.4912 0.9452
-12.4889 3.4512 -6.7218 0.9433
-13.5050 2.7074 -7.1455 0.9398
-13.7099 2.2402 -7.2067 0.9393
-13.8642 1.7573 -7.2500 0.9390
-13.9762 1.2641 -7.2802 0.9387
-14.0516 0.7640 -7.3005 0.9386
-14.0532 -0.7502 -7.3009 0.9386
-13.9788 -1.2505 -7.2809 0.9387
-13.5403 -2.7006 -7.1628 0.9397
-12.8102 -4.0261 -6.9662 0.9413
-12.1883 -4.8157 -6.7987 0.9427
-11.1005 -5.8346 -6.5058 0.9451
-10.7066 -6.1276 -6.3997 0.9459
-9.8862 -6.6420 -6.1788 0.9477
-10.8488 3.8545 -6.3058 0.9488
-11.4271 3.6038 -6.5625 0.9468
-11.7488 3.2467 -6.6760 0.9459
-12.5299 1.1333 -6.8907 0.9442
-12.5939 0.6847 -6.9079 0.9441
-12.6263 0.2328 -6.9166 0.9440
-12.6267 -0.2204 -6.9168 0.9440
-12.5952 -0.6724 -6.9083 0.9441
-12.4378 -1.5642 -6.8659 0.9444
-12.1594 -2.4252 -6.7909 0.9450
-11.9776 -2.8392 -6.7420 0.9454
-11.7692 -3.2399 -6.6858 0.9458
-11.5361 -3.6257 -6.6231 0.9463
-11.2798 -3.9951 -6.5540 0.9469
-11.0023 -4.3471 -6.4793 0.9475
-10.3917 -4.9948 -6.3149 0.9488
-10.0626 -5.2891 -6.2263 0.9495
-9.7203 -5.5631 -6.1341 0.9502
-9.9840 3.9561 -6.2003 0.9516
-10.2367 3.6370 -6.2721 0.9511
-10.4629 3.2997 -6.3341 0.9506
-10.8468 2.5824 -6.4374 0.9498
-11.2463 1.4255 -6.5450 0.9490
-11.3835 0.6189 -6.5820 0.9487
-11.4114 0.2104 -6.5895 0.9486
-11.3846 -0.6078 -6.5823 0.9487
-11.1415 -1.8093 -6.5168 0.9492
-11.0086 -2.1957 -6.4810 0.9495
-10.8514 -2.5723 -6.4387 0.9498
-10.0045 -3.9529 -6.2106 0.9515
-9.7456 -4.2609 -6.1409 0.9521
-9.4711 -4.5523 -6.0670 0.9526
-9.1825 -4.8265 -5.9893 0.9532
-8.5701 -5.3218 -5.8244 0.9545
-8.2496 -5.5425 -5.7380 0.9551
-7.9216 -5.7451 -5.6497 0.9558
