ply
format ascii 1.0
element vertex 286
property float32 x
property float32 y
property float32 z
property float32 I
end_header
-0.7018 6.2562 0.5329 0.9750
-13.3893 29.0792 1.9852 0.8796
-14.0885 37.3795 1.5751 0.8522
-14.4514 34.5685 1.4774 0.8607
-15.0448 29.8365 1.3176 0.8748
-15.9932 29.0975 1.3092 0.8755
-16.9271 44.9107 0.8107 0.8253
-17.1488 41.0206 0.7510 0.8371
-17.7635 29.7621 0.5855 0.8705
-20.9086 41.4652 -0.2615 0.8305
-20.8423 37.9198 -0.2436 0.8411
-20.7366 32.0946 -0.2151 0.8583
-21.9089 29.1392 -0.2052 0.8643
-24.3959 34.9672 -1.2006 0.8431
-24.1374 32.1031 -1.1310 0.8515
-23.9131 29.5573 -1.0705 0.8589
-25.3606 29.1635 -1.0883 0.8567
-29.0372 38.6199 -2.4504 0.8241
-28.4587 35.1757 -2.2946 0.8343
-29.2746 29.1910 -2.0966 0.8474
1.2863 42.2739 -3.1010 0.8440
-0.2465 48.1708 -3.5321 0.8243
-0.5595 7.3297 -0.5390 0.9709
-33.1683 35.5113 -3.5629 0.8229
-33.4312 28.9042 -3.2404 0.8376
1.0060 33.0618 -3.1756 0.8755
-0.2995 7.3648 -0.7076 0.9708
-0.5589 7.3225 -0.7050 0.9709
-31.1021 28.8839 -4.0750 0.8432
-35.9705 28.9318 -4.4318 0.8307
-0.5584 7.3153 -0.8715 0.9709
-8.2507 24.4942 -3.0702 0.9011
-29.4480 29.3639 -4.9399 0.8458
-31.1049 28.8865 -5.0424 0.8428
-35.9740 28.9346 -5.4839 0.8303
-38.7502 28.9621 -5.7466 0.8229
0.6992 22.9785 -3.2573 0.9113
-3.4439 30.6999 -4.3771 0.8827
-11.7257 45.1964 -6.6159 0.8281
-29.2070 29.1235 -5.8441 0.8465
-31.1077 28.8891 -6.0152 0.8424
-38.7513 28.9629 -6.8548 0.8225
-38.8097 26.9120 -6.6917 0.8263
0.6060 19.9158 -3.2824 0.9224
-0.1079 21.0953 -3.4753 0.9180
-5.4173 29.3079 -4.9100 0.8862
-7.0270 31.6753 -5.3450 0.8768
-8.9332 34.4329 -5.8602 0.8657
-28.9684 28.8856 -6.7394 0.8472
-38.5329 26.7200 -7.7247 0.8269
-38.5922 24.7785 -7.5553 0.8303
-0.3005 7.3882 -1.3898 0.9704
-1.5667 20.5258 -3.8693 0.9196
-4.5107 24.4032 -4.6646 0.9039
-5.7654 25.9882 -5.0035 0.8973
-7.2046 27.7701 -5.3925 0.8898
-10.8156 32.1086 -6.3684 0.8712
-33.4466 28.9176 -8.3106 0.8353
-38.1871 28.5412 -8.9609 0.8236
-38.2579 26.5294 -8.7507 0.8274
-38.3228 24.6056 -8.5601 0.8308
-0.2984 7.3377 -1.5523 0.9704
-1.3702 17.9520 -3.8057 0.9290
-2.1194 18.8924 -4.0185 0.9252
-2.9437 19.8472 -4.2412 0.9212
-3.8597 20.8812 -4.4886 0.9168
-6.0287 23.2374 -5.0745 0.9065
-7.3221 24.5926 -5.4239 0.9004
-10.1110 24.1860 -5.5412 0.8984
-12.2148 24.2241 -5.7346 0.8950
-9.6491 13.8302 -3.5646 0.9334
-28.9578 28.8751 -8.6442 0.8460
-33.4497 28.9203 -9.3469 0.8346
-35.9879 28.9459 -9.7625 0.8279
-37.9078 28.3325 -10.0037 0.8241
-37.9846 26.3398 -9.7707 0.8278
0.4210 13.8371 -3.2535 0.9447
-0.0740 14.4711 -3.4011 0.9423
-1.2115 15.8723 -3.7412 0.9367
-5.1761 19.9510 -4.8442 0.9188
-7.3930 21.9477 -5.4430 0.9092
-15.8227 28.7872 -7.7203 0.8737
-18.2878 30.6405 -8.3864 0.8636
-24.5105 35.1316 -10.0677 0.8386
-28.4977 37.9023 -11.1449 0.8230
-28.9604 28.8777 -9.6119 0.8453
-31.1189 28.8995 -9.9810 0.8399
-37.7126 26.1512 -10.7858 0.8281
-0.5513 13.5564 -3.5129 0.9455
-4.4952 17.3337 -4.6361 0.9287
-7.4265 19.7038 -5.4520 0.9167
-9.8753 21.4473 -6.1135 0.9070
-14.3955 22.2804 -6.8682 0.8962
-21.4412 28.5171 -9.2378 0.8629
-24.3493 30.0964 -10.0235 0.8522
-31.5616 33.7911 -11.9719 0.8261
-30.4003 28.2321 -10.7419 0.8425
-35.9951 28.9517 -11.9604 0.8262
-37.5226 24.0918 -11.5454 0.8317
-0.0610 11.9220 -3.3751 0.9516
-1.4811 13.2025 -3.7610 0.9463
-2.6193 14.1705 -4.0795 0.9419
-3.2641 14.7133 -4.2665 0.9393
-3.9671 15.2854 -4.4708 0.9365
-4.7293 15.8843 -4.6918 0.9334
-6.4141 17.0177 -5.1484 0.9272
-8.4497 18.3512 -5.7193 0.9194
-9.6083 19.0551 -6.0413 0.9151
-10.8498 19.7397 -6.3767 0.9106
-16.2953 21.6730 -7.6762 0.8934
-33.0972 28.6154 -12.3860 0.8337
-37.1713 25.7759 -12.8054 0.8286
-37.2575 23.9215 -12.5342 0.8319
-0.0561 10.9687 -3.3738 0.9551
-0.8904 11.6653 -3.5984 0.9522
-1.3490 12.0253 -3.7219 0.9506
-1.8382 12.3935 -3.8537 0.9489
-2.3613 12.7745 -3.9957 0.9471
-2.9227 13.1744 -4.1507 0.9451
-3.5247 13.5860 -4.3171 0.9430
-4.1715 14.0110 -4.4964 0.9407
-5.6291 14.9352 -4.9092 0.9354
-6.4493 15.4271 -5.1430 0.9324
-7.3361 15.9327 -5.3951 0.9292
-9.6759 14.9757 -5.4840 0.9281
-11.3306 15.0700 -5.7992 0.9241
-17.3496 19.9512 -8.1323 0.8953
-23.0275 21.3851 -9.6660 0.8768
-27.1563 21.8424 -10.7193 0.8643
-28.2568 21.1193 -10.8505 0.8627
-33.0760 22.9360 -12.3801 0.8450
-26.1535 16.7921 -9.5596 0.8780
-0.8195 10.7368 -3.5794 0.9556
-1.2382 11.0380 -3.6921 0.9543
-2.1537 11.6515 -3.9386 0.9513
-2.6540 11.9633 -4.0734 0.9497
-3.1854 12.2782 -4.2165 0.9479
-3.7522 12.6025 -4.3709 0.9461
-5.0013 13.2693 -4.7137 0.9420
-5.6886 13.6070 -4.9024 0.9397
-7.2055 14.2897 -5.3197 0.9348
-8.0456 14.6378 -5.5523 0.9320
-9.9184 15.3510 -6.0752 0.9259
-12.0571 16.0361 -6.6691 0.9189
-14.4590 16.6270 -7.3244 0.9113
-16.5621 16.5148 -7.7746 0.9061
-20.2059 17.4697 -8.8788 0.8935
-25.4695 17.6615 -10.3026 0.8775
-18.8218 12.0847 -7.4350 0.9100
0.2792 9.1775 -3.2835 0.9617
-0.7583 9.9341 -3.5629 0.9586
-1.9778 10.7001 -3.8913 0.9548
-2.9086 11.2111 -4.1419 0.9520
-3.4135 11.4652 -4.2779 0.9505
-5.1071 12.2164 -4.7351 0.9453
-5.7400 12.4664 -4.9079 0.9434
-7.1169 12.9482 -5.2837 0.9392
-8.6545 13.3949 -5.7030 0.9345
-9.4885 13.5999 -5.9301 0.9320
-12.2698 14.1095 -6.6867 0.9236
-13.2941 14.2332 -6.9648 0.9206
-14.3682 14.3271 -7.2561 0.9174
-16.6646 14.4076 -7.8778 0.9107
-17.8838 14.3843 -8.2074 0.9071
-18.6290 11.9609 -7.9168 0.9102
0.2610 8.5770 -3.2884 0.9639
-0.3666 9.0145 -3.4574 0.9621
-1.0601 9.4500 -3.6441 0.9601
-1.4337 9.6660 -3.7447 0.9590
-1.8263 9.8803 -3.8505 0.9579
-2.6726 10.3013 -4.0784 0.9554
-3.6068 10.7078 -4.3300 0.9528
-5.7724 11.4477 -4.9131 0.9466
-7.0227 11.7662 -5.2511 0.9430
-8.4000 12.0399 -5.6259 0.9390
-9.1363 12.1513 -5.8260 0.9370
-9.9047 12.2425 -6.0347 0.9348
-10.7055 12.3108 -6.2520 0.9325
-14.2205 12.2949 -7.2040 0.9226
-17.1367 11.8831 -7.9915 0.9145
-18.1450 11.6502 -8.2634 0.9118
-0.0370 7.2379 -2.9623 0.9692
-0.3426 8.4248 -3.4509 0.9642
-0.6575 8.6139 -3.5357 0.9634
-2.0727 9.3430 -3.9168 0.9595
-3.7688 9.9995 -4.3736 0.9549
-4.2417 10.1463 -4.5009 0.9536
-6.3457 10.6319 -5.0675 0.9479
-6.9269 10.7210 -5.2240 0.9463
-9.4774 10.8986 -5.9112 0.9395
-10.8884 10.8573 -6.2932 0.9357
-11.6230 10.7940 -6.4920 0.9337
-13.1409 10.5696 -6.9021 0.9297
-13.9195 10.4035 -7.1123 0.9276
-14.7066 10.1980 -7.3246 0.9256
-15.4985 9.9510 -7.5381 0.9235
-0.6155 8.0634 -3.5244 0.9653
-0.9227 8.2251 -3.6071 0.9645
-1.9270 8.6861 -3.8776 0.9619
-2.2908 8.8297 -3.9756 0.9610
-3.0646 9.0979 -4.1839 0.9590
-3.9025 9.3351 -4.4096 0.9568
-5.2851 9.6155 -4.7819 0.9533
-5.7801 9.6843 -4.9152 0.9520
-6.2922 9.7386 -5.0531 0.9507
-6.8212 9.7771 -5.1956 0.9493
-7.3669 9.7980 -5.3425 0.9479
-9.0974 9.7401 -5.8085 0.9435
-0.0372 7.2775 -3.3687 0.9684
-0.5778 7.5701 -3.5143 0.9671
-0.8650 7.7108 -3.5916 0.9664
-1.1639 7.8472 -3.6721 0.9656
-1.4748 7.9787 -3.7558 0.9649
-2.4826 8.3385 -4.0272 0.9624
-3.2197 8.5424 -4.2257 0.9606
-3.6083 8.6312 -4.3304 0.9596
-4.0105 8.7102 -4.4387 0.9586
-4.8557 8.8343 -4.6663 0.9565
-6.7045 8.9171 -5.1641 0.9520
-8.2150 8.7953 -5.5709 0.9483
-10.3425 8.3187 -6.1438 0.9432
-10.8837 8.1345 -6.2895 0.9419
-11.4242 7.9219 -6.4351 0.9406
-11.9614 7.6799 -6.5798 0.9393
-0.0351 6.8663 -3.3681 0.9699
-0.2846 6.9975 -3.4353 0.9693
-1.0926 7.3663 -3.6529 0.9674
-1.6831 7.5866 -3.8119 0.9660
-2.6502 7.8676 -4.0723 0.9637
-3.3504 8.0143 -4.2609 0.9620
-4.8831 8.1814 -4.6736 0.9584
-5.2927 8.1916 -4.7839 0.9575
-6.5780 8.1306 -5.1301 0.9545
-7.9321 7.9095 -5.4947 0.9513
-9.3241 7.4996 -5.8696 0.9481
-10.2514 7.1087 -6.1193 0.9459
0.2026 6.6587 -3.4560 0.9704
-0.0345 6.7369 -3.4950 0.9701
-0.5130 6.7209 -3.4968 0.9701
-0.7661 6.8290 -3.5650 0.9695
-1.8695 7.2060 -3.8621 0.9670
-2.1686 7.2839 -3.9427 0.9663
-2.4771 7.3540 -4.0257 0.9656
-2.7950 7.4158 -4.1113 0.9649
-3.1222 7.4685 -4.1995 0.9642
-3.4586 7.5115 -4.2900 0.9634
-4.1581 7.5651 -4.4784 0.9618
-5.2695 7.5529 -4.7777 0.9593
-5.6546 7.5208 -4.8814 0.9585
-6.0461 7.4731 -4.9868 0.9576
-6.4429 7.4090 -5.0937 0.9567
-6.8442 7.3277 -5.2018 0.9558
-7.2490 7.2283 -5.3108 0.9549
-7.6560 7.1100 -5.4204 0.9540
-8.4713 6.8137 -5.6399 0.9522
-9.2777 6.4335 -5.8571 0.9504
-9.6731 6.2107 -5.9636 0.9495
0.1924 6.3226 -3.4645 0.9716
-0.0329 6.4316 -3.5227 0.9711
-1.2240 6.6219 -3.6883 0.9698
-2.3220 6.8933 -3.9840 0.9674
-2.9188 6.9818 -4.1447 0.9661
-3.5460 7.0323 -4.3136 0.9647
-4.5390 7.0252 -4.5810 0.9626
-5.2308 6.9570 -4.7673 0.9611
-5.5838 6.9017 -4.8623 0.9603
-6.6617 6.6427 -5.1526 0.9580
-7.0240 6.5231 -5.2502 0.9572
-7.3859 6.3858 -5.3476 0.9564
-8.4556 5.8634 -5.6357 0.9542
0.1826 6.0028 -3.4673 0.9726
-0.0312 6.1052 -3.5249 0.9722
-2.7360 6.5446 -4.0954 0.9678
-3.3155 6.5752 -4.2515 0.9666
-3.6141 6.5753 -4.3319 0.9659
-3.9180 6.5645 -4.4138 0.9653
-4.2269 6.5422 -4.4969 0.9647
-4.8576 6.4606 -4.6668 0.9634
-5.1780 6.4002 -4.7531 0.9627
-5.5010 6.3259 -4.8400 0.9620
-5.8256 6.2371 -4.9274 0.9613
-6.4761 6.0142 -5.1026 0.9600
-6.7999 5.8791 -5.1898 0.9593
-7.4389 5.5599 -5.3619 0.9580
-7.7516 5.3752 -5.4461 0.9574
-8.0578 5.1736 -5.5286 0.9567
