ply
format ascii 1.0
element vertex 339
property float32 x
property float32 y
property float32 z
property float32 I
end_header
42.6308 23.6953 8.6001 0.8203
39.3632 23.7612 8.1073 0.8296
34.5158 32.6622 8.3791 0.8245
21.8833 34.7133 7.2356 0.8465
14.7513 30.1431 5.9173 0.8726
13.3703 29.9940 5.7904 0.8751
11.4913 31.7016 5.9457 0.8720
21.7084 13.1041 3.8845 0.9025
36.2125 23.6673 6.6273 0.8394
30.0959 32.8673 6.8271 0.8350
15.8954 18.6578 3.7549 0.9056
24.1109 32.7891 6.2350 0.8481
12.3791 30.6777 5.0678 0.8747
20.1116 13.1443 3.1287 0.9076
31.2954 23.8133 5.1210 0.8533
24.1984 32.9081 5.3192 0.8481
22.9360 12.7484 2.8178 0.8998
21.6597 13.0747 2.7168 0.9032
17.4413 13.2714 2.3534 0.9156
27.0983 23.8644 3.8774 0.8648
25.1319 23.7822 3.7155 0.8701
23.4596 23.8476 3.5922 0.8741
19.7092 11.8973 1.9489 0.9117
18.8091 13.2771 1.9490 0.9117
16.5102 13.5224 1.8066 0.9179
13.8937 13.1475 1.6193 0.9261
13.3664 13.5875 1.6135 0.9263
16.6911 18.2281 2.0922 0.9055
18.9608 23.9409 2.5853 0.8846
17.2053 11.2448 1.2746 0.9209
16.3443 13.3865 1.3101 0.9188
15.1351 13.3289 1.2506 0.9224
13.1125 13.3294 1.1595 0.9278
12.1069 13.2217 1.1117 0.9307
19.7509 23.1833 1.8886 0.8851
18.8410 23.7895 1.8818 0.8855
9.9178 13.4875 1.0381 0.9351
12.0776 33.3190 2.1977 0.8676
14.9821 8.3275 0.6759 0.9337
15.0456 9.0821 0.6930 0.9321
15.1958 10.7265 0.7334 0.9282
13.8960 13.1497 0.7544 0.9263
13.1135 13.3304 0.7373 0.9279
11.3948 13.3751 0.6928 0.9321
10.4846 13.2384 0.6659 0.9346
16.3251 23.9516 1.1430 0.8904
14.7236 25.3209 1.1550 0.8894
14.6755 27.4541 1.2275 0.8828
13.4366 7.4684 0.2597 0.9404
13.4583 8.1240 0.2655 0.9390
13.4826 8.8118 0.2721 0.9376
13.5728 11.1165 0.2964 0.9322
13.6098 11.9856 0.3063 0.9300
11.4001 13.3813 0.2969 0.9321
10.0789 15.9879 0.3193 0.9272
9.9644 17.1364 0.3348 0.9238
9.8588 20.1455 0.3789 0.9142
9.8953 27.2987 0.4905 0.8903
12.7466 7.0849 -0.0821 0.9433
12.3391 7.4484 -0.0811 0.9440
12.1683 7.9528 -0.0818 0.9435
12.1611 8.5843 -0.0838 0.9422
12.1530 9.2474 -0.0860 0.9407
12.1441 9.9464 -0.0884 0.9391
12.1342 10.6861 -0.0910 0.9374
11.4649 13.4574 -0.0995 0.9317
10.5784 13.3568 -0.0959 0.9341
10.0555 17.2931 -0.1126 0.9231
10.1620 22.7966 -0.1405 0.9050
11.6631 6.4826 -0.3757 0.9480
11.6346 7.0231 -0.3827 0.9471
11.3843 7.4404 -0.3829 0.9470
10.9873 8.9989 -0.3999 0.9448
10.9470 9.6406 -0.4107 0.9433
10.8539 11.0334 -0.4358 0.9399
10.8001 11.7946 -0.4503 0.9380
10.7405 12.6070 -0.4664 0.9359
10.5108 13.2715 -0.4767 0.9345
9.9676 13.5552 -0.4738 0.9349
10.1577 22.7872 -0.7025 0.9050
9.7712 26.9561 -0.8074 0.8916
10.6601 6.9671 -0.6458 0.9503
9.9043 9.3724 -0.6915 0.9469
9.8320 9.9946 -0.7110 0.9454
9.4638 12.8700 -0.8102 0.9380
9.3549 13.7252 -0.8424 0.9356
9.1918 15.8077 -0.9273 0.9294
8.9397 18.2675 -1.0314 0.9218
8.4957 21.0539 -1.1514 0.9131
8.2263 22.6942 -1.2242 0.9078
9.9567 5.5342 -0.8352 0.9553
9.9074 5.9805 -0.8485 0.9546
9.8533 6.4398 -0.8631 0.9539
9.7097 7.3883 -0.8946 0.9522
8.9841 9.1327 -0.9393 0.9499
8.7842 10.3107 -0.9932 0.9471
8.6700 10.9472 -1.0239 0.9455
8.5449 11.6205 -1.0576 0.9438
7.9882 14.9438 -1.2424 0.9343
7.6127 17.0779 -1.3710 0.9278
7.3944 18.3243 -1.4488 0.9238
9.2192 5.5651 -1.0338 0.9577
9.0183 6.8622 -1.0879 0.9555
8.9243 7.3093 -1.1075 0.9547
8.4673 7.4568 -1.0832 0.9557
8.3660 7.9167 -1.1058 0.9548
7.9228 10.0037 -1.2251 0.9500
7.7864 10.5890 -1.2619 0.9486
7.4750 11.8576 -1.3457 0.9452
7.2970 12.5491 -1.3936 0.9433
7.1017 13.2854 -1.4463 0.9413
6.9144 14.1290 -1.5102 0.9387
6.7263 15.0893 -1.5861 0.9358
6.4768 16.0508 -1.6617 0.9328
6.2104 17.1330 -1.7496 0.9294
8.6786 4.8238 -1.1794 0.9608
8.6180 5.2022 -1.1957 0.9603
8.5519 5.5892 -1.2136 0.9597
8.4015 6.3929 -1.2540 0.9584
7.8616 7.4394 -1.2857 0.9573
7.6564 7.7830 -1.2969 0.9570
7.5445 8.2392 -1.3270 0.9560
7.4232 8.7132 -1.3597 0.9549
7.2917 9.2068 -1.3951 0.9538
6.9943 10.2618 -1.4752 0.9512
6.8261 10.8281 -1.5205 0.9497
6.6429 11.4242 -1.5698 0.9482
6.2252 12.7206 -1.6823 0.9445
5.9865 13.4296 -1.7466 0.9425
5.7532 14.2574 -1.8263 0.9399
5.5025 15.1800 -1.9180 0.9370
8.0183 5.2405 -1.3572 0.9620
7.9429 5.6068 -1.3776 0.9615
7.8610 5.9816 -1.3996 0.9609
7.5654 7.1592 -1.4758 0.9588
7.3043 7.4251 -1.4758 0.9588
7.0104 7.6559 -1.4708 0.9589
6.8857 8.0823 -1.5044 0.9580
6.7510 8.5241 -1.5407 0.9570
6.4482 9.4606 -1.6222 0.9548
6.2781 9.9588 -1.6680 0.9536
6.0938 10.4798 -1.7177 0.9522
5.6770 11.6004 -1.8299 0.9492
5.4409 12.2058 -1.8935 0.9474
5.1837 12.8460 -1.9628 0.9456
4.9033 13.5269 -2.0386 0.9435
7.5446 4.9309 -1.4848 0.9641
7.3830 5.6178 -1.5283 0.9631
7.1941 6.3355 -1.5792 0.9619
7.0883 6.7076 -1.6077 0.9612
6.7764 7.4005 -1.6530 0.9601
6.4180 7.5334 -1.6304 0.9607
6.2822 7.9322 -1.6669 0.9598
5.8088 9.2144 -1.7944 0.9568
5.6258 9.6749 -1.8437 0.9556
5.4282 10.1548 -1.8969 0.9544
5.2148 10.6559 -1.9544 0.9530
4.7337 11.7308 -2.0839 0.9500
4.4622 12.3099 -2.1570 0.9483
7.2605 4.0355 -1.5613 0.9668
7.1208 4.6539 -1.5989 0.9660
7.0420 4.9708 -1.6202 0.9655
6.7658 5.9583 -1.6945 0.9640
5.8714 7.4136 -1.7775 0.9622
5.5697 8.1716 -1.8588 0.9605
5.2217 8.9801 -1.9525 0.9586
4.8195 9.8481 -2.0608 0.9564
4.0917 11.2881 -2.2568 0.9523
6.3825 5.6209 -1.7977 0.9658
6.2760 5.9389 -1.8264 0.9653
6.1616 6.2635 -1.8572 0.9647
5.9071 6.9336 -1.9254 0.9634
5.7565 7.2685 -1.9599 0.9628
4.8690 8.3735 -2.0475 0.9612
4.2598 9.5560 -2.2116 0.9581
6.5341 3.6318 -1.7569 0.9698
6.4663 3.9033 -1.7752 0.9694
6.3136 4.4567 -1.8163 0.9687
6.2281 4.7391 -1.8393 0.9684
5.9314 5.6129 -1.9192 0.9670
5.8179 5.9142 -1.9498 0.9665
5.5667 6.5342 -2.0174 0.9653
4.7305 7.5039 -2.0848 0.9642
4.5582 7.8390 -2.1312 0.9634
4.3742 8.1831 -2.1807 0.9626
3.5025 9.6624 -2.4155 0.9586
6.2182 3.4562 -1.8420 0.9710
6.1507 3.7128 -1.8602 0.9708
6.0776 3.9721 -1.8799 0.9704
5.5075 5.5986 -2.0334 0.9681
5.2600 6.1740 -2.1000 0.9670
4.9784 6.7703 -2.1759 0.9659
4.8182 7.0691 -2.2150 0.9653
4.1033 7.6763 -2.2537 0.9647
3.7103 8.3235 -2.3595 0.9630
3.2638 9.0041 -2.4797 0.9612
5.8612 3.5380 -1.9381 0.9719
5.7104 4.0308 -1.9787 0.9714
5.5359 4.5341 -2.0257 0.9707
5.4392 4.7901 -2.0518 0.9703
5.2253 5.3118 -2.1094 0.9695
5.1076 5.5779 -2.1411 0.9690
4.9821 5.8479 -2.1749 0.9686
4.8486 6.1221 -2.2108 0.9681
4.7065 6.4005 -2.2491 0.9675
4.5554 6.6835 -2.2898 0.9669
4.2146 7.2481 -2.3736 0.9657
3.8733 7.2459 -2.3259 0.9664
3.6774 7.5145 -2.3684 0.9658
3.2742 8.1139 -2.4770 0.9643
5.6609 3.1465 -1.9921 0.9733
5.4454 3.8438 -2.0501 0.9725
5.3622 4.0802 -2.0725 0.9722
5.2732 4.3189 -2.0965 0.9719
5.0761 4.8035 -2.1495 0.9712
4.9676 5.0498 -2.1788 0.9708
4.8521 5.2989 -2.2099 0.9704
4.7292 5.5510 -2.2430 0.9699
4.3125 6.3272 -2.3552 0.9685
4.1563 6.5931 -2.3972 0.9679
3.9890 6.8602 -2.4408 0.9673
3.0778 7.6274 -2.5298 0.9662
5.4134 3.0089 -2.0587 0.9742
5.3478 3.2281 -2.0764 0.9740
5.2769 3.4488 -2.0955 0.9738
5.2006 3.6710 -2.1160 0.9735
5.1187 3.8949 -2.1381 0.9733
4.7310 4.8092 -2.2425 0.9720
4.6178 5.0431 -2.2730 0.9716
4.2347 5.7589 -2.3761 0.9703
3.9396 6.2493 -2.4556 0.9693
5.1833 2.8810 -2.1207 0.9751
5.0488 3.2997 -2.1569 0.9747
4.8932 3.7233 -2.1988 0.9742
4.8070 3.9371 -2.2220 0.9739
4.6171 4.3691 -2.2732 0.9734
4.5128 4.5875 -2.3012 0.9730
4.2846 5.0292 -2.3627 0.9723
4.0284 5.4783 -2.4317 0.9715
3.8889 5.7057 -2.4693 0.9711
3.5857 6.1665 -2.5509 0.9702
3.2475 6.6359 -2.6420 0.9691
3.0615 6.8679 -2.6890 0.9686
4.9687 2.7617 -2.1785 0.9759
4.9050 2.9609 -2.1956 0.9758
4.7626 3.3618 -2.2340 0.9753
4.5989 3.7666 -2.2781 0.9749
4.2026 4.5896 -2.3848 0.9737
4.0879 4.7983 -2.4157 0.9734
3.8383 5.2198 -2.4829 0.9726
3.7027 5.4324 -2.5194 0.9722
3.5596 5.6465 -2.5579 0.9718
3.2494 6.0788 -2.6415 0.9709
2.9049 6.5167 -2.7342 0.9699
2.7177 6.7350 -2.7832 0.9694
4.7679 2.6501 -2.2325 0.9767
4.7053 2.8403 -2.2494 0.9765
4.6378 3.0311 -2.2676 0.9763
4.1230 4.1912 -2.4062 0.9749
4.0173 4.3873 -2.4347 0.9746
3.9055 4.5842 -2.4648 0.9743
3.7873 4.7820 -2.4966 0.9740
3.2455 5.5815 -2.6425 0.9725
3.0915 5.7835 -2.6840 0.9721
2.7591 6.1895 -2.7735 0.9711
2.5800 6.3936 -2.8217 0.9706
2.3918 6.5982 -2.8724 0.9701
4.5793 2.5453 -2.2833 0.9774
4.5179 2.7272 -2.2999 0.9772
4.4517 2.9094 -2.3177 0.9771
4.3806 3.0922 -2.3369 0.9769
4.3045 3.2754 -2.3573 0.9767
4.1370 3.6433 -2.4024 0.9762
3.9478 4.0131 -2.4534 0.9757
3.8447 4.1988 -2.4812 0.9755
3.4992 4.7586 -2.5742 0.9746
2.6248 5.8883 -2.8097 0.9723
2.4523 6.0773 -2.8561 0.9718
4.3415 2.6207 -2.3474 0.9779
4.1325 3.1445 -2.4037 0.9774
3.7839 3.8464 -2.4975 0.9765
3.3470 4.5517 -2.6152 0.9754
3.0920 4.9048 -2.6838 0.9748
2.9547 5.0814 -2.7208 0.9744
2.8105 5.2578 -2.7596 0.9741
2.5007 5.6099 -2.8431 0.9733
2.1606 5.9605 -2.9347 0.9724
4.2342 2.3535 -2.3763 0.9786
4.0433 2.8541 -2.4277 0.9782
3.9704 3.0212 -2.4473 0.9780
3.8928 3.1883 -2.4682 0.9778
3.8102 3.3555 -2.4904 0.9776
3.7226 3.5227 -2.5140 0.9774
3.6299 3.6900 -2.5390 0.9772
3.0840 4.5247 -2.6860 0.9759
2.9572 4.6911 -2.7201 0.9756
2.5386 5.1874 -2.8329 0.9746
2.3856 5.3516 -2.8741 0.9742
2.0580 5.6775 -2.9623 0.9735
4.0756 2.2653 -2.4190 0.9792
3.9554 2.5851 -2.4513 0.9789
3.8887 2.7449 -2.4693 0.9788
3.7415 3.0644 -2.5090 0.9784
3.6609 3.2240 -2.5307 0.9783
3.5754 3.3834 -2.5537 0.9781
3.3895 3.7016 -2.6037 0.9776
3.2887 3.8603 -2.6309 0.9774
3.1827 4.0186 -2.6594 0.9772
3.0712 4.1766 -2.6895 0.9769
2.8311 4.4909 -2.7541 0.9764
2.5672 4.8027 -2.8252 0.9758
2.2783 5.1110 -2.9030 0.9751
2.1240 5.2635 -2.9445 0.9747
1.9628 5.4148 -2.9879 0.9744
3.9250 2.1816 -2.4595 0.9797
3.8683 2.3351 -2.4748 0.9796
3.7421 2.6415 -2.5088 0.9793
3.5984 2.9472 -2.5475 0.9790
3.5196 3.0996 -2.5687 0.9788
3.4362 3.2517 -2.5911 0.9787
3.1571 3.7057 -2.6663 0.9780
3.0539 3.8561 -2.6941 0.9778
2.9456 4.0058 -2.7233 0.9776
2.8319 4.1548 -2.7539 0.9773
2.4572 4.5968 -2.8548 0.9765
2.3206 4.7420 -2.8916 0.9762
2.0292 5.0287 -2.9700 0.9756
3.7819 2.1020 -2.4981 0.9802
3.6668 2.3965 -2.5291 0.9800
3.6030 2.5433 -2.5462 0.9798
3.5350 2.6898 -2.5646 0.9797
3.4626 2.8360 -2.5841 0.9795
3.3858 2.9817 -2.6047 0.9794
3.3045 3.1270 -2.6266 0.9792
3.2186 3.2718 -2.6498 0.9790
3.0326 3.5596 -2.6998 0.9786
2.4802 4.2653 -2.8486 0.9775
2.2218 4.5400 -2.9182 0.9769
1.9405 4.8089 -2.9939 0.9763
