ply
format ascii 1.0
element vertex 226
property float32 x
property float32 y
property float32 z
property float32 I
end_header
-4.9638 -14.5843 2.0062 0.9397
-4.6535 -15.4619 2.1027 0.9369
-4.6078 -15.3101 1.7169 0.9377
-5.1525 -13.5339 1.2259 0.9435
-5.1062 -13.4122 0.8899 0.9441
-4.5244 -15.0331 0.9735 0.9390
-4.7875 -14.0662 0.5859 0.9423
-4.1542 -15.8309 0.6454 0.9366
-4.1016 -15.6306 0.2730 0.9374
-0.1138 -17.1893 0.2904 0.9335
-0.1142 -17.2436 -0.0971 0.9333
-4.6370 -13.6241 -0.4052 0.9440
-17.4256 -19.8311 -1.3388 0.8997
-4.3164 -14.3418 -0.7596 0.9418
-0.7274 -17.1719 -0.8716 0.9335
-0.1142 -17.2411 -0.8744 0.9333
-17.3452 -19.7396 -1.9267 0.9000
-16.3285 -21.5019 -1.9796 0.8974
-24.0853 -36.9180 -3.2320 0.8380
-0.1126 -17.0075 -1.2471 0.9341
-16.7430 -20.4856 -2.5400 0.8991
-16.2006 -21.3335 -2.5717 0.8979
-24.0929 -36.9297 -4.2332 0.8376
-0.7168 -16.9211 -1.6260 0.9342
-24.0700 -36.8946 -5.2328 0.8374
-3.8532 -14.6839 -1.8033 0.9407
-8.9374 -47.7063 -5.7654 0.8224
-6.3571 -42.2106 -5.0706 0.8420
-0.7168 -16.9204 -2.0117 0.9341
-0.1126 -17.0062 -2.0201 0.9338
-16.0398 -21.1217 -3.7578 0.8984
-8.9008 -39.6339 -5.7556 0.8487
-6.7149 -35.8431 -5.1669 0.8630
-4.9239 -32.6938 -4.6846 0.8750
-0.1126 -17.0055 -2.4095 0.9336
-17.3377 -45.5403 -8.0276 0.8207
-13.8788 -40.7777 -7.0961 0.8398
-8.8448 -33.7040 -5.7405 0.8683
-6.9604 -30.9937 -5.2330 0.8792
-5.3708 -28.6684 -4.8050 0.8885
-4.0132 -26.6475 -4.4394 0.8965
-0.1120 -16.9231 -2.7879 0.9337
-19.0245 -40.9189 -8.4818 0.8322
-15.6970 -37.1804 -7.5857 0.8485
-10.6941 -31.4202 -6.2385 0.8736
-7.1272 -27.1606 -5.2780 0.8920
-4.4695 -23.8574 -4.5623 0.9059
-1.5685 -20.0549 -3.7810 0.9214
-0.1120 -16.9224 -3.1808 0.9334
-15.7520 -20.7426 -5.5055 0.8990
-20.1923 -36.3862 -8.7963 0.8436
-14.4711 -31.1254 -7.2556 0.8691
-12.2498 -29.0153 -6.6574 0.8792
-10.3405 -27.1609 -6.1433 0.8880
-8.6842 -25.5153 -5.6972 0.8957
-7.2358 -24.0422 -5.3072 0.9024
-4.8299 -21.5067 -4.6593 0.9138
-3.8225 -20.4041 -4.3880 0.9186
-2.9203 -19.3910 -4.1451 0.9230
-2.1087 -18.4556 -3.9265 0.9269
-0.7108 -16.7797 -3.5501 0.9336
-20.8822 -32.0083 -8.9820 0.8547
-18.0524 -29.9564 -8.2200 0.8661
-13.5037 -26.5238 -6.9951 0.8849
-11.6550 -25.0683 -6.4972 0.8926
-7.2993 -21.4463 -5.3243 0.9111
-6.1490 -20.4312 -5.0145 0.9161
-3.3032 -14.7085 -3.5429 0.9399
-2.5661 -17.0389 -4.0497 0.9316
-1.8648 -16.3214 -3.8609 0.9347
-1.2236 -15.6450 -3.6882 0.9376
-0.6356 -15.0057 -3.5298 0.9402
-0.0953 -14.3997 -3.3843 0.9425
-32.5972 -34.5285 -12.2946 0.8218
-28.5979 -32.5457 -11.2176 0.8361
-21.1466 -27.8465 -9.0533 0.8655
-18.6331 -26.4467 -8.3764 0.8749
-16.4181 -25.1658 -7.7799 0.8832
-14.4555 -23.9876 -7.2514 0.8907
-12.7076 -22.8990 -6.7807 0.8974
-8.4728 -20.0690 -5.6403 0.9139
-4.4734 -17.0474 -4.5633 0.9298
-1.6697 -14.6135 -3.8083 0.9410
-1.1007 -14.0737 -3.6551 0.9433
-22.0348 -25.0766 -9.4503 0.8704
-19.7498 -24.1645 -8.8349 0.8783
-13.4987 -20.6908 -6.9937 0.9024
-9.4698 -18.6004 -5.9088 0.9169
-4.7105 -15.6516 -4.6272 0.9343
-3.9698 -15.1283 -4.4277 0.9370
-3.2644 -14.5358 -4.2175 0.9399
-2.6486 -14.1377 -4.0719 0.9420
-2.0585 -13.6682 -3.9130 0.9442
-0.9995 -12.7796 -3.6289 0.9481
-0.5354 -12.6398 -3.5814 0.9488
-17.8790 -20.3471 -8.3311 0.8928
-16.2242 -19.8508 -7.8855 0.8983
-14.6880 -19.3416 -7.4700 0.9034
-11.4385 -17.5330 -6.4390 0.9161
-10.2830 -17.0638 -6.1278 0.9200
-8.2191 -16.1439 -5.5720 0.9270
-7.2971 -15.6951 -5.3237 0.9301
-4.2090 -13.9852 -4.4921 0.9407
-3.5635 -13.5799 -4.3183 0.9429
-3.0032 -13.3727 -4.2156 0.9443
-2.4716 -13.1931 -4.1285 0.9454
-1.9540 -12.9747 -4.0357 0.9466
-0.5025 -11.8621 -3.6518 0.9515
-16.3613 -17.3307 -7.9225 0.9044
-11.4230 -16.2131 -6.5926 0.9198
-10.3712 -15.8970 -6.3094 0.9231
-8.4559 -15.2374 -5.7926 0.9292
-7.5840 -14.8963 -5.5564 0.9320
-6.7675 -14.5559 -5.3358 0.9346
-6.0022 -14.2169 -5.1297 0.9370
-5.2845 -13.8805 -4.9370 0.9393
-3.9774 -13.2156 -4.5876 0.9435
-2.8183 -12.5496 -4.2754 0.9472
-2.2895 -12.2211 -4.1330 0.9489
-1.7916 -11.8962 -3.9990 0.9506
-1.3225 -11.5751 -3.8726 0.9521
-0.8804 -11.2579 -3.7536 0.9535
-0.4636 -10.9447 -3.6413 0.9549
-11.8881 -14.5455 -6.7179 0.9233
-10.9204 -14.3804 -6.4573 0.9262
-10.0014 -14.1954 -6.2098 0.9289
-9.1293 -13.9934 -5.9749 0.9315
-8.3024 -13.7772 -5.7523 0.9340
-7.5189 -13.5489 -5.5413 0.9363
-6.0740 -13.0644 -5.1522 0.9406
-5.4088 -12.8115 -4.9730 0.9426
-4.7792 -12.5534 -4.8035 0.9445
-3.0857 -11.7589 -4.3474 0.9497
-1.6494 -10.9520 -3.9607 0.9540
-1.2206 -10.6831 -3.8452 0.9553
-0.8145 -10.4150 -3.7358 0.9566
-0.4299 -10.1480 -3.6323 0.9578
-10.4574 -12.7949 -6.3326 0.9317
-9.6512 -12.7090 -6.1155 0.9339
-8.8785 -12.6017 -5.9074 0.9361
-8.1389 -12.4754 -5.7082 0.9382
-7.4318 -12.3324 -5.5178 0.9402
-6.7564 -12.1749 -5.3359 0.9421
-6.1119 -12.0048 -5.1624 0.9439
-3.8219 -11.2294 -4.5457 0.9505
-2.8347 -10.8025 -4.2799 0.9533
-1.5263 -10.1345 -3.9275 0.9570
-0.7570 -9.6786 -3.7203 0.9593
-0.4003 -9.4490 -3.6243 0.9603
-0.0610 -9.2189 -3.5329 0.9613
-10.0256 -11.4097 -6.2163 0.9365
-9.3166 -11.3991 -6.0254 0.9384
-8.6306 -11.3651 -5.8406 0.9402
-6.7153 -11.1435 -5.3249 0.9453
-6.1245 -11.0363 -5.1658 0.9469
-5.0129 -10.7820 -4.8664 0.9499
-4.4912 -10.6379 -4.7259 0.9513
-3.9914 -10.4842 -4.5914 0.9527
-2.6180 -9.9768 -4.2215 0.9564
-2.1998 -9.7955 -4.1089 0.9575
-1.8002 -9.6094 -4.0013 0.9586
-0.7062 -9.0291 -3.7067 0.9616
-0.0571 -8.6294 -3.5319 0.9634
-8.9945 -10.2362 -5.9386 0.9423
-7.2149 -10.2405 -5.4594 0.9468
-6.6559 -10.2023 -5.3089 0.9482
-5.0869 -9.9916 -4.8863 0.9523
-4.6000 -9.8940 -4.7552 0.9535
-4.1311 -9.7851 -4.6290 0.9547
-3.6799 -9.6658 -4.5075 0.9559
-2.4289 -9.2562 -4.1706 0.9591
-2.0449 -9.1055 -4.0672 0.9601
-1.6765 -8.9490 -3.9680 0.9611
-1.3234 -8.7874 -3.8729 0.9620
-0.9850 -8.6213 -3.7818 0.9628
-8.6828 -9.1972 -5.8547 0.9458
-8.1406 -9.2644 -5.7087 0.9471
-7.6088 -9.3097 -5.5655 0.9484
-6.5804 -9.3399 -5.2885 0.9509
-6.0854 -9.3277 -5.1552 0.9521
-5.1362 -9.2554 -4.8996 0.9544
-4.6827 -9.1978 -4.7775 0.9555
-2.6304 -8.7400 -4.2248 0.9606
-1.9078 -8.4952 -4.0303 0.9623
-7.8976 -8.3656 -5.6433 0.9500
-7.4213 -8.4458 -5.5150 0.9511
-6.9519 -8.5059 -5.3886 0.9522
-6.4905 -8.5470 -5.2643 0.9533
-5.5955 -8.5769 -5.0233 0.9554
-5.1632 -8.5679 -4.9069 0.9564
-4.7417 -8.5445 -4.7934 0.9574
-3.9325 -8.4583 -4.5755 0.9593
-3.5453 -8.3975 -4.4712 0.9602
-2.8062 -8.2450 -4.2722 0.9619
-1.1627 -7.7201 -3.8296 0.9658
-0.5839 -7.4666 -3.6737 0.9672
-7.2293 -7.6577 -5.4633 0.9537
-5.5691 -7.9044 -5.0162 0.9574
-4.3965 -7.9224 -4.7004 0.9600
-3.3033 -7.8244 -4.4061 0.9625
-1.3801 -7.3667 -3.8881 0.9668
-1.0940 -7.2644 -3.8111 0.9674
-0.8176 -7.1563 -3.7367 0.9681
-0.0450 -6.8016 -3.5286 0.9698
-5.8983 -7.2168 -5.1048 0.9584
-5.5262 -7.2771 -5.0046 0.9592
-5.1588 -7.3221 -4.9057 0.9600
-4.7968 -7.3525 -4.8082 0.9608
-4.4409 -7.3693 -4.7124 0.9615
-4.0916 -7.3729 -4.6183 0.9623
-3.7493 -7.3644 -4.5262 0.9630
-3.0877 -7.3135 -4.3480 0.9644
-2.4581 -7.2222 -4.1784 0.9658
-1.8620 -7.0957 -4.0179 0.9671
-1.2999 -6.9389 -3.8666 0.9683
-6.1505 -6.5149 -5.1728 0.9595
-5.1309 -6.7566 -4.8982 0.9616
-4.7966 -6.8080 -4.8082 0.9623
-4.4662 -6.8458 -4.7192 0.9630
-3.8200 -6.8836 -4.5452 0.9643
-2.8940 -6.8547 -4.2958 0.9662
-2.5983 -6.8248 -4.2162 0.9668
-1.4865 -6.6193 -3.9168 0.9692
-0.9747 -6.4724 -3.7790 0.9702
-0.4928 -6.3014 -3.6492 0.9712
-0.2629 -6.2078 -3.5873 0.9717
