ply
format ascii 1.0
element vertex 341
property float32 x
property float32 y
property float32 z
property float32 I
end_header
19.2641 -40.1870 7.8581 0.8344
19.3433 -33.8108 6.8685 0.8537
19.6406 -31.6087 6.5618 0.8597
19.1064 -43.8788 7.3316 0.8239
19.9008 -41.5150 7.0528 0.8300
12.6586 -17.4115 3.2978 0.9166
9.1143 -17.3656 2.5539 0.9239
9.9408 -17.3759 2.6068 0.9224
11.7071 -17.3979 2.7307 0.9189
12.6574 -17.4098 2.8030 0.9168
6.8107 -17.3355 2.0000 0.9278
8.2835 -17.2803 2.0578 0.9258
9.1135 -17.3641 2.1058 0.9241
9.8974 -17.2999 2.1402 0.9229
10.8025 -17.3851 2.1979 0.9210
11.6904 -17.3731 2.2486 0.9192
12.4295 -17.0964 2.2697 0.9185
6.0900 -17.3252 1.5546 0.9289
6.7820 -17.2624 1.5700 0.9283
7.5518 -17.3433 1.6013 0.9269
9.1127 -17.3626 1.6599 0.9243
10.5641 -17.0013 1.6944 0.9228
11.4995 -17.0893 1.7437 0.9206
12.4289 -17.0956 1.7892 0.9187
2.7229 -17.2688 1.0841 0.9323
3.3740 -17.2904 1.0924 0.9318
4.0329 -17.2984 1.1014 0.9313
4.7036 -17.3067 1.1121 0.9306
6.0895 -17.3238 1.1387 0.9290
6.8096 -17.3327 1.1548 0.9281
7.5512 -17.3418 1.1729 0.9270
8.1810 -17.0665 1.1736 0.9270
8.9600 -17.0716 1.1956 0.9256
12.4283 -17.0947 1.3106 0.9188
1.4443 -17.2078 0.6809 0.9332
2.0760 -17.2080 0.6834 0.9330
4.0325 -17.2971 0.7003 0.9314
5.3652 -17.2405 0.7120 0.9303
6.7009 -17.0559 0.7226 0.9293
8.1807 -17.0657 0.7462 0.9270
9.7694 -17.0762 0.7757 0.9243
0.8187 -17.2563 0.2918 0.9332
1.4490 -17.2641 0.2926 0.9330
2.0838 -17.2719 0.2939 0.9328
2.7246 -17.2797 0.2955 0.9324
3.3735 -17.2877 0.2975 0.9320
5.3046 -17.0460 0.3016 0.9311
5.9935 -17.0505 0.3053 0.9302
6.7006 -17.0552 0.3095 0.9293
7.4285 -17.0600 0.3143 0.9283
8.1803 -17.0650 0.3197 0.9271
11.4978 -17.0869 0.3479 0.9209
12.4270 -17.0930 0.3570 0.9189
1.4489 -17.2628 -0.0975 0.9331
2.7244 -17.2784 -0.0985 0.9324
3.9718 -17.0365 -0.0985 0.9324
4.6091 -16.9589 -0.0989 0.9321
6.7003 -17.0545 -0.1032 0.9293
7.4282 -17.0592 -0.1048 0.9283
8.9588 -17.0693 -0.1085 0.9258
10.5620 -16.9981 -0.1127 0.9231
11.4973 -17.0860 -0.1159 0.9209
12.0441 -16.5662 -0.1153 0.9213
1.4488 -17.2615 -0.4878 0.9330
2.6848 -17.0273 -0.4854 0.9333
3.9716 -17.0358 -0.4926 0.9324
4.6089 -16.9582 -0.4948 0.9321
6.7000 -17.0537 -0.5159 0.9293
8.1796 -17.0634 -0.5328 0.9271
10.5048 -15.6111 -0.5298 0.9275
0.8073 -17.0143 -0.8638 0.9341
2.0537 -17.0225 -0.8695 0.9336
2.6847 -17.0266 -0.8742 0.9333
3.3234 -17.0308 -0.8800 0.9329
3.9715 -17.0351 -0.8871 0.9323
4.6087 -16.9575 -0.8912 0.9320
5.9927 -17.0484 -0.9165 0.9302
6.6997 -17.0530 -0.9292 0.9292
8.1792 -17.0627 -0.9596 0.9270
9.1922 -14.7936 -0.8833 0.9326
9.3263 -13.8597 -0.8472 0.9353
9.4468 -12.9938 -0.8147 0.9377
-0.4293 -17.0055 -1.2473 0.9340
0.8072 -17.0136 -1.2489 0.9340
1.4284 -17.0177 -1.2522 0.9338
2.0536 -17.0218 -1.2571 0.9335
2.6846 -17.0259 -1.2638 0.9332
6.6994 -17.0523 -1.3433 0.9292
8.0554 -14.0804 -1.1894 0.9370
8.2277 -13.2412 -1.1430 0.9394
8.3835 -12.4587 -1.1011 0.9415
-0.4273 -16.9230 -1.6252 0.9342
0.1885 -17.0088 -1.6330 0.9339
1.4283 -17.0170 -1.6395 0.9337
2.0535 -17.0211 -1.6460 0.9334
3.3231 -17.0294 -1.6657 0.9327
3.9712 -17.0337 -1.6792 0.9321
4.6306 -17.0380 -1.6951 0.9315
5.2780 -16.9605 -1.7053 0.9311
6.3152 -16.0743 -1.6580 0.9330
6.5887 -15.1312 -1.5844 0.9358
7.7365 -11.4972 -1.3304 0.9458
8.1237 -11.1738 -1.3263 0.9460
-2.0217 -32.7961 -3.9031 0.8760
0.8072 -17.0122 -2.0231 0.9337
2.6844 -17.0246 -2.0473 0.9329
3.9710 -17.0330 -2.0775 0.9320
4.6304 -17.0373 -2.0972 0.9314
5.0200 -16.1314 -2.0068 0.9342
5.3526 -15.2272 -1.9173 0.9371
5.6530 -14.3888 -1.8364 0.9396
5.9254 -13.6079 -1.7630 0.9420
6.1730 -12.8775 -1.6963 0.9441
6.3988 -12.1916 -1.6355 0.9460
6.6102 -11.5542 -1.5812 0.9478
7.1000 -11.4265 -1.5980 0.9473
-0.4272 -16.9217 -2.3984 0.9339
0.1885 -17.0075 -2.4099 0.9336
0.8071 -17.0116 -2.4131 0.9335
2.0533 -17.0197 -2.4290 0.9331
2.6843 -17.0239 -2.4419 0.9327
3.7597 -16.1265 -2.3462 0.9353
4.1489 -15.2655 -2.2414 0.9381
4.5015 -14.4650 -2.1465 0.9406
5.1139 -13.0166 -1.9815 0.9451
5.3808 -12.3573 -1.9097 0.9470
5.6252 -11.7348 -1.8438 0.9488
6.3404 -11.0826 -1.8091 0.9497
6.7226 -9.9904 -1.7062 0.9525
6.8918 -9.4795 -1.6606 0.9538
-1.3947 -22.6248 -3.7343 0.9122
-0.4272 -16.9210 -2.7884 0.9337
0.1885 -17.0068 -2.8019 0.9334
2.0422 -16.9269 -2.8087 0.9332
2.5311 -16.0521 -2.6771 0.9362
2.9738 -15.2393 -2.5579 0.9390
3.3760 -14.4809 -2.4495 0.9415
4.3844 -12.4728 -2.1780 0.9478
4.6661 -11.8767 -2.1021 0.9496
6.0480 -9.7335 -1.8878 0.9546
6.2308 -9.2595 -1.8386 0.9558
-1.2057 -19.5593 -3.6834 0.9233
-0.4272 -16.9203 -3.1814 0.9334
0.1885 -17.0061 -3.1967 0.9331
0.7930 -16.7140 -3.1451 0.9342
1.3346 -15.9010 -2.9993 0.9371
2.2754 -14.4307 -2.7459 0.9423
2.6855 -13.7619 -2.6355 0.9445
3.0613 -13.1310 -2.5343 0.9466
3.7277 -11.9784 -2.3580 0.9502
4.1319 -11.7546 -2.3419 0.9506
4.9942 -10.4184 -2.1716 0.9541
5.2194 -9.9445 -2.1110 0.9553
5.4284 -9.4884 -2.0547 0.9565
5.8031 -8.6239 -1.9538 0.9586
5.9710 -8.2129 -1.9086 0.9595
-1.0608 -17.2080 -3.6443 0.9319
-0.4144 -16.4119 -3.4702 0.9351
0.1737 -15.6671 -3.3119 0.9380
0.7102 -14.9677 -3.1674 0.9406
1.2010 -14.3089 -3.0352 0.9430
1.6512 -13.6864 -2.9140 0.9452
2.4463 -12.5363 -2.6999 0.9491
2.7982 -12.0026 -2.6051 0.9509
3.5832 -11.5142 -2.5490 0.9519
4.4025 -10.1105 -2.3310 0.9559
4.6374 -9.6740 -2.2677 0.9571
4.8561 -9.2524 -2.2088 0.9582
5.2501 -8.4492 -2.1027 0.9601
5.4274 -8.0656 -2.0550 0.9610
-0.3714 -14.7117 -3.4587 0.9413
0.1564 -14.1107 -3.3165 0.9437
1.0908 -12.9953 -3.0649 0.9478
1.5051 -12.4758 -2.9533 0.9497
1.9089 -12.1064 -2.8804 0.9509
2.3441 -12.0124 -2.8764 0.9510
2.6950 -11.5599 -2.7897 0.9524
3.0174 -11.1023 -2.7039 0.9538
3.3167 -10.6579 -2.6233 0.9552
3.5956 -10.2289 -2.5482 0.9564
4.0986 -9.4126 -2.4128 0.9587
4.3254 -9.0232 -2.3517 0.9597
4.9209 -7.9196 -2.1913 0.9624
5.2567 -7.2303 -2.1009 0.9639
-0.8527 -13.8326 -3.5883 0.9443
0.1422 -12.8233 -3.3204 0.9484
0.5874 -12.3805 -3.2091 0.9501
1.0300 -12.2712 -3.1884 0.9504
1.4448 -11.9753 -3.1231 0.9514
1.8205 -11.5455 -3.0263 0.9529
3.5980 -9.1580 -2.5476 0.9602
4.0500 -8.4487 -2.4259 0.9620
4.2550 -8.1072 -2.3707 0.9629
4.6278 -7.4477 -2.2703 0.9644
4.7970 -7.1287 -2.2247 0.9651
4.9556 -6.8163 -2.1820 0.9658
-0.3176 -12.5815 -3.5629 0.9490
0.1361 -12.2752 -3.4752 0.9502
0.5633 -11.8725 -3.3648 0.9518
1.3357 -11.0709 -3.1568 0.9547
2.0125 -10.3129 -2.9746 0.9573
3.8049 -7.9375 -2.4919 0.9641
4.1894 -7.3228 -2.3883 0.9655
4.5294 -6.7311 -2.2968 0.9668
-0.2951 -11.6875 -3.5960 0.9523
1.5670 -9.9381 -3.0945 0.9588
1.8753 -9.6098 -3.0115 0.9599
2.1654 -9.2880 -2.9334 0.9609
2.6958 -8.6629 -2.7905 0.9627
3.1668 -8.0605 -2.6637 0.9644
3.5852 -7.4791 -2.5510 0.9659
3.7766 -7.1955 -2.4995 0.9666
4.1270 -6.6418 -2.4051 0.9678
-0.6851 -11.1128 -3.7010 0.9542
-0.2726 -10.7963 -3.5899 0.9555
0.4828 -10.1763 -3.3865 0.9580
0.8287 -9.8729 -3.2933 0.9591
1.1550 -9.5738 -3.2055 0.9602
1.4631 -9.2790 -3.1225 0.9612
1.7540 -8.9884 -3.0442 0.9621
2.0288 -8.7020 -2.9702 0.9630
2.2883 -8.4197 -2.9003 0.9639
2.5336 -8.1413 -2.8342 0.9647
2.7653 -7.8668 -2.7718 0.9655
2.9843 -7.5961 -2.7128 0.9662
3.1913 -7.3289 -2.6571 0.9669
3.5717 -6.8051 -2.5547 0.9681
3.9111 -6.2943 -2.4633 0.9692
-0.6344 -10.2916 -3.6873 0.9571
0.7737 -9.2184 -3.3081 0.9615
1.0804 -8.9549 -3.2256 0.9624
1.3708 -8.6937 -3.1473 0.9633
1.6460 -8.4349 -3.0733 0.9642
2.1537 -7.9242 -2.9365 0.9657
2.3877 -7.6725 -2.8735 0.9664
2.6094 -7.4232 -2.8138 0.9671
2.8194 -7.1763 -2.7573 0.9678
3.3852 -6.4499 -2.6049 0.9695
3.5541 -6.2123 -2.5594 0.9701
3.8650 -5.7437 -2.4757 0.9710
4.0078 -5.5125 -2.4372 0.9715
-0.5901 -9.5728 -3.6754 0.9597
-0.2358 -9.3389 -3.5800 0.9608
0.1009 -9.1048 -3.4893 0.9617
0.4209 -8.8705 -3.4032 0.9627
0.7249 -8.6365 -3.3213 0.9636
1.2883 -8.1700 -3.1696 0.9652
1.7968 -7.7070 -3.0326 0.9667
2.4679 -7.0209 -2.8519 0.9686
2.6695 -6.7948 -2.7976 0.9692
2.8608 -6.5700 -2.7461 0.9698
3.3780 -5.9045 -2.6068 0.9713
3.6794 -5.4680 -2.5257 0.9722
3.8182 -5.2518 -2.4883 0.9726
-0.5510 -8.9376 -3.6649 0.9620
-0.2205 -8.7343 -3.5759 0.9629
0.3949 -8.3228 -3.4102 0.9646
0.6812 -8.1153 -3.3331 0.9654
1.4614 -7.4892 -3.1229 0.9676
1.6972 -7.2801 -3.0594 0.9682
2.1355 -6.8623 -2.9414 0.9694
2.3390 -6.6539 -2.8866 0.9700
2.5325 -6.4461 -2.8345 0.9705
2.7166 -6.2388 -2.7849 0.9710
2.8916 -6.0322 -2.7378 0.9715
-0.5161 -8.3717 -3.6555 0.9641
-0.2069 -8.1940 -3.5722 0.9649
0.0888 -8.0134 -3.4926 0.9656
0.3715 -7.8304 -3.4164 0.9664
0.6417 -7.6454 -3.3437 0.9671
1.1464 -7.2705 -3.2078 0.9684
1.3819 -7.0814 -3.1444 0.9690
1.8211 -6.7005 -3.0261 0.9702
2.0257 -6.5092 -2.9710 0.9707
2.2208 -6.3176 -2.9185 0.9712
2.7526 -5.7422 -2.7752 0.9726
2.9132 -5.5506 -2.7320 0.9730
3.3493 -4.9773 -2.6146 0.9742
-0.4848 -7.8640 -3.6470 0.9659
0.8507 -7.0509 -3.2874 0.9692
1.0849 -6.8808 -3.2243 0.9698
1.3092 -6.7088 -3.1640 0.9703
1.7287 -6.3605 -3.0510 0.9714
1.9247 -6.1847 -2.9982 0.9719
2.1119 -6.0079 -2.9478 0.9723
2.4613 -5.6524 -2.8537 0.9732
2.6240 -5.4739 -2.8099 0.9736
2.7792 -5.2951 -2.7681 0.9740
2.9269 -5.1161 -2.7283 0.9744
3.0676 -4.9369 -2.6904 0.9747
3.3286 -4.5784 -2.6201 0.9754
-0.4565 -7.4054 -3.6394 0.9675
0.0790 -7.1251 -3.4952 0.9688
0.3311 -6.9792 -3.4273 0.9693
0.5733 -6.8301 -3.3621 0.9699
0.8057 -6.6781 -3.2995 0.9705
1.0286 -6.5236 -3.2395 0.9710
1.2424 -6.3667 -3.1819 0.9715
1.6435 -6.0472 -3.0739 0.9725
2.5045 -5.2247 -2.8421 0.9745
2.6544 -5.0574 -2.8017 0.9749
2.7973 -4.8895 -2.7632 0.9752
3.1868 -4.3834 -2.6583 0.9761
-0.4308 -6.9888 -3.6325 0.9689
-0.1733 -6.8662 -3.5632 0.9695
0.0747 -6.7392 -3.4964 0.9701
0.5434 -6.4736 -3.3702 0.9712
0.7644 -6.3357 -3.3107 0.9717
0.9768 -6.1948 -3.2535 0.9721
1.1808 -6.0513 -3.1985 0.9726
1.3768 -5.9054 -3.1457 0.9730
1.5647 -5.7573 -3.0951 0.9735
1.7450 -5.6074 -3.0466 0.9739
2.0832 -5.3025 -2.9555 0.9747
2.2416 -5.1480 -2.9128 0.9750
2.5379 -4.8355 -2.8331 0.9757
2.8082 -4.5193 -2.7603 0.9763
2.9340 -4.3602 -2.7264 0.9766
3.0538 -4.2004 -2.6941 0.9769
0.0708 -6.3852 -3.4974 0.9713
0.2974 -6.2672 -3.4364 0.9718
1.1239 -5.7593 -3.2139 0.9736
1.8307 -5.2080 -3.0235 0.9751
1.9900 -5.0652 -2.9806 0.9755
2.4288 -4.6276 -2.8624 0.9764
2.6904 -4.3298 -2.7920 0.9770
2.8124 -4.1795 -2.7591 0.9773
-0.3858 -6.2588 -3.6204 0.9715
-0.1555 -6.1613 -3.5584 0.9719
0.4903 -5.8415 -3.3845 0.9733
1.0709 -5.4878 -3.2281 0.9745
1.2505 -5.3637 -3.1798 0.9749
1.4233 -5.2369 -3.1332 0.9752
1.5895 -5.1078 -3.0885 0.9756
1.7493 -4.9764 -3.0454 0.9759
1.9027 -4.8429 -3.0041 0.9763
2.1911 -4.5708 -2.9265 0.9769
2.3263 -4.4323 -2.8900 0.9771
2.5796 -4.1514 -2.8218 0.9777
2.6978 -4.0092 -2.7900 0.9779
2.8107 -3.8661 -2.7596 0.9782
