ply
format ascii 1.0
element vertex 265
property float32 x
property float32 y
property float32 z
property float32 I
end_header
-1.1051 7.3523 1.3110 0.9703
-1.1881 7.9045 1.2245 0.9682
-0.6954 6.0838 0.6575 0.9757
-0.7220 6.3160 0.5382 0.9748
-12.3107 32.5643 2.1588 0.8698
-13.6828 40.4660 1.6844 0.8428
-15.0486 29.8053 1.3166 0.8749
-16.0071 29.0976 1.3095 0.8755
-0.9755 8.5335 0.1451 0.9662
-16.9338 44.7933 0.8089 0.8257
-17.1535 40.9354 0.7497 0.8373
-17.3407 37.5935 0.6993 0.8474
-17.5018 34.6640 0.6559 0.8561
-17.6417 32.0690 0.6183 0.8638
-18.8150 29.1174 0.5856 0.8705
-20.8417 37.8857 -0.2434 0.8412
-20.7853 34.8084 -0.2283 0.8503
-20.7365 32.0910 -0.2151 0.8583
-20.6939 29.6680 -0.2037 0.8653
-25.0459 41.9435 -1.3756 0.8224
-24.3967 34.9764 -1.2008 0.8431
-24.1392 32.1233 -1.1315 0.8515
-23.9156 29.5860 -1.0712 0.8588
-29.0419 38.6475 -2.4517 0.8240
-27.5427 29.5321 -2.0480 0.8507
-29.2218 29.1907 -2.0947 0.8475
-32.4113 32.3769 -3.3591 0.8322
-31.0330 28.8807 -3.1083 0.8436
-33.3483 28.9034 -3.2358 0.8378
-31.0357 28.8833 -4.0703 0.8434
-33.3513 28.9061 -4.2372 0.8375
-35.8684 28.9308 -4.4241 0.8310
-38.6213 28.9580 -4.6343 0.8237
-4.4443 38.8792 -4.6484 0.8542
-6.5182 43.3657 -5.2091 0.8381
-35.8718 28.9336 -5.4744 0.8306
-6.8683 36.7901 -5.3028 0.8597
-9.0899 40.6603 -5.9034 0.8451
-11.8540 45.4160 -6.6506 0.8273
-29.2051 29.1741 -5.8490 0.8464
-2.9193 25.5398 -4.2348 0.9010
-4.1116 27.3549 -4.5570 0.8939
-5.4922 29.4190 -4.9302 0.8857
-7.1074 31.7925 -5.3668 0.8763
-11.3160 37.8257 -6.5043 0.8521
-14.1206 41.7607 -7.2623 0.8363
-28.9664 28.9355 -6.7449 0.8471
-31.0439 28.8909 -6.9862 0.8420
-33.3606 28.9140 -7.2727 0.8361
-38.4653 28.8410 -7.9201 0.8229
-38.5299 26.8144 -7.7332 0.8267
-2.4882 21.7683 -4.1182 0.9147
-3.4654 23.0553 -4.3822 0.9095
-7.2688 27.8487 -5.4098 0.8895
-8.9363 29.8712 -5.8605 0.8808
-10.8843 32.1898 -6.3869 0.8708
-13.1864 34.8807 -7.0091 0.8592
-19.3020 41.8455 -8.6617 0.8290
-35.8822 28.9420 -8.6649 0.8289
-38.2547 26.6228 -8.7603 0.8272
-3.9085 20.9355 -4.5018 0.9166
-4.9317 22.0603 -4.7782 0.9117
-6.0792 23.2909 -5.0882 0.9063
-7.3730 24.6453 -5.4377 0.9002
-10.5184 27.8234 -6.2875 0.8855
-10.1316 24.1783 -5.5414 0.8984
-12.2221 24.2070 -5.7321 0.8951
-24.2479 40.6072 -9.9974 0.8242
-31.0495 28.8962 -8.9658 0.8408
-35.8857 28.9449 -9.7455 0.8282
-37.9043 28.4204 -10.0143 0.8239
-1.8975 16.6000 -3.9268 0.9337
-2.6118 17.3763 -4.1297 0.9303
-3.4033 18.2284 -4.3582 0.9266
-5.2174 19.9893 -4.8554 0.9186
-7.4331 21.9829 -5.4539 0.9091
-11.8425 25.6738 -6.6449 0.8903
-18.3033 30.6520 -8.3906 0.8636
-21.1556 32.7395 -9.1612 0.8520
-24.4995 35.1238 -10.0647 0.8386
-28.4651 37.8800 -11.1361 0.8231
-28.9079 28.8771 -9.6031 0.8454
-31.0523 28.8988 -9.9695 0.8400
-35.8893 28.9477 -10.8366 0.8274
-37.6261 28.2118 -11.0527 0.8243
-1.6853 14.7431 -3.8421 0.9405
-2.9932 16.0338 -4.2232 0.9348
-3.7254 16.6643 -4.4212 0.9319
-4.5370 17.3652 -4.6480 0.9285
-5.4252 18.1346 -4.9010 0.9248
-8.6187 20.5680 -5.7741 0.9120
-9.2809 18.3817 -5.3316 0.9184
-11.5717 21.0349 -6.2160 0.9056
-16.3217 23.3997 -7.3869 0.8888
-21.4209 28.5059 -9.2323 0.8630
-24.3122 30.0767 -10.0134 0.8523
-27.6328 31.8138 -10.9105 0.8402
-31.4749 33.7483 -11.9485 0.8264
-30.3638 28.2579 -10.7395 0.8425
-35.8929 28.9506 -11.9396 0.8265
-2.0593 13.7004 -3.9221 0.9440
-4.7588 15.9070 -4.7004 0.9333
-7.4090 17.6809 -5.4270 0.9234
-9.6259 19.0649 -6.0461 0.9150
-10.4749 15.0175 -5.1834 0.9267
-19.1220 23.6558 -8.6111 0.8812
-21.3252 24.5518 -9.2062 0.8735
-23.7733 25.4905 -9.8675 0.8651
-26.5019 26.4737 -10.6045 0.8558
-29.5520 27.5025 -11.4284 0.8455
-37.1671 25.8659 -12.8189 0.8284
-1.8659 12.4139 -3.8611 0.9488
-2.9494 13.1930 -4.1580 0.9450
-3.5506 13.6033 -4.3243 0.9429
-6.4695 15.4389 -5.1488 0.9323
-8.2862 16.4117 -5.6548 0.9259
-10.3612 17.3515 -6.2161 0.9189
-9.6763 14.9747 -5.4838 0.9281
-10.4946 15.0457 -5.6423 0.9261
-12.1041 14.9740 -5.9222 0.9226
-19.0539 20.4302 -8.5927 0.8897
-16.6468 16.6291 -7.2372 0.9062
-25.1686 21.8139 -10.2443 0.8699
-32.9373 22.9222 -12.3427 0.8454
-2.1781 11.6671 -3.9452 0.9512
-2.6777 11.9777 -4.0797 0.9496
-3.2082 12.2913 -4.2226 0.9479
-3.7738 12.6147 -4.3768 0.9460
-4.3771 12.9452 -4.5424 0.9440
-5.7053 13.6150 -4.9070 0.9397
-6.4363 13.9535 -5.1079 0.9373
-7.2174 14.2948 -5.3230 0.9347
-12.0486 16.0337 -6.6668 0.9189
-14.4379 16.6227 -7.3187 0.9114
-15.7389 16.8758 -7.6706 0.9073
-18.5920 17.3025 -8.4423 0.8985
-1.1664 10.2040 -3.6728 0.9573
-2.4519 10.9677 -4.0189 0.9534
-2.9290 11.2217 -4.1474 0.9519
-4.5266 11.9736 -4.5776 0.9471
-5.1217 12.2224 -4.7391 0.9453
-5.7525 12.4711 -4.9114 0.9433
-8.6557 13.3953 -5.7033 0.9345
-9.4855 13.5992 -5.9293 0.9320
-10.3612 13.7881 -6.1677 0.9294
-11.2833 13.9586 -6.4186 0.9266
-12.2534 14.1073 -6.6822 0.9237
-14.3404 14.3252 -7.2486 0.9175
-16.6233 14.4076 -7.8667 0.9108
-17.8359 14.3862 -8.1945 0.9072
-1.0817 9.4629 -3.6500 0.9600
-2.2583 10.1020 -3.9668 0.9566
-2.6910 10.3100 -4.0833 0.9554
-3.1454 10.5143 -4.2057 0.9541
-3.6228 10.7142 -4.3343 0.9527
-4.6501 11.0971 -4.6109 0.9498
-5.2022 11.2780 -4.7596 0.9482
-7.0265 11.7671 -5.2522 0.9430
-7.6966 11.9110 -5.4346 0.9411
-8.3978 12.0396 -5.6253 0.9391
-9.8954 12.2416 -6.0322 0.9348
-12.3805 12.3673 -6.7061 0.9278
-13.2703 12.3500 -6.9470 0.9253
-14.1886 12.2974 -7.1953 0.9227
-16.1012 12.0726 -7.7121 0.9174
-1.0073 8.8117 -3.6299 0.9624
-1.7128 9.1749 -3.8199 0.9605
-2.4855 9.5227 -4.0280 0.9584
-2.8987 9.6893 -4.1393 0.9572
-3.3306 9.8499 -4.2556 0.9561
-5.2579 10.4139 -4.7746 0.9508
-5.7925 10.5295 -4.9185 0.9494
-8.1523 10.8487 -5.5540 0.9430
-8.7980 10.8840 -5.7279 0.9413
-9.4662 10.8985 -5.9081 0.9395
-10.1580 10.8918 -6.0955 0.9377
-13.8858 10.4115 -7.1032 0.9277
-1.2613 8.3917 -3.6983 0.9636
-1.9433 8.6928 -3.8820 0.9619
-2.3061 8.8355 -3.9797 0.9609
-3.0777 9.1020 -4.1875 0.9589
-3.4871 9.2242 -4.2977 0.9579
-3.9129 9.3376 -4.4124 0.9568
-4.8142 9.5348 -4.6551 0.9545
-5.7830 9.6847 -4.9160 0.9520
-6.8196 9.7770 -5.1951 0.9493
-7.3627 9.7979 -5.3414 0.9479
-7.9218 9.8001 -5.4920 0.9465
-10.3008 9.5864 -6.1326 0.9404
-11.5567 9.3215 -6.4708 0.9373
-12.1944 9.1433 -6.6425 0.9357
-1.4908 7.9852 -3.7601 0.9648
-2.1481 8.2299 -3.9371 0.9632
-2.4958 8.3426 -4.0308 0.9623
-2.8565 8.4479 -4.1279 0.9615
-3.6177 8.6332 -4.3329 0.9596
-4.0184 8.7116 -4.4408 0.9586
-4.4326 8.7791 -4.5523 0.9576
-4.8602 8.8348 -4.6675 0.9565
-5.3011 8.8777 -4.7862 0.9554
-5.7551 8.9065 -4.9085 0.9543
-6.7009 8.9172 -5.1632 0.9520
-7.1915 8.8966 -5.2953 0.9508
-7.6929 8.8569 -5.4303 0.9496
-8.2042 8.7968 -5.5680 0.9484
-8.7243 8.7150 -5.7080 0.9471
-9.2516 8.6100 -5.8501 0.9458
-10.3217 8.3253 -6.1382 0.9432
-10.8604 8.1430 -6.2833 0.9419
-11.3986 7.9327 -6.4282 0.9406
-0.8293 7.2551 -3.5820 0.9680
-1.1082 7.3726 -3.6571 0.9673
-1.3973 7.4849 -3.7350 0.9666
-1.6971 7.5914 -3.8157 0.9659
-2.0076 7.6915 -3.8993 0.9652
-2.6612 7.8703 -4.0753 0.9637
-3.0045 7.9476 -4.1678 0.9629
-4.1007 8.1218 -4.4630 0.9603
-4.8855 8.1815 -4.6743 0.9584
-5.7108 8.1873 -4.8965 0.9565
-6.1375 8.1675 -5.0114 0.9555
-6.5727 8.1311 -5.1287 0.9545
-7.0156 8.0772 -5.2479 0.9535
-7.4653 8.0045 -5.3690 0.9524
-7.9205 7.9121 -5.4916 0.9513
-9.7692 7.3248 -5.9894 0.9471
-10.2296 7.1191 -6.1134 0.9460
-1.0427 6.9375 -3.6395 0.9689
-1.8817 7.2094 -3.8654 0.9670
-2.1799 7.2866 -3.9457 0.9663
-3.8091 7.5443 -4.3844 0.9626
-4.8919 7.5705 -4.6760 0.9602
-6.4364 7.4102 -5.0919 0.9567
-6.8358 7.3296 -5.1995 0.9558
-7.6439 7.1138 -5.4171 0.9540
-8.0500 6.9771 -5.5265 0.9531
-8.8591 6.6425 -5.7444 0.9513
-0.7573 6.6253 -3.6523 0.9700
-0.9920 6.5994 -3.6552 0.9700
-1.2370 6.6260 -3.6918 0.9697
-1.7683 6.7747 -3.8348 0.9686
-2.9260 6.9826 -4.1466 0.9661
-3.2347 7.0126 -4.2297 0.9654
-4.2035 7.0395 -4.4906 0.9633
-5.9347 6.8327 -4.9568 0.9596
-6.2927 6.7472 -5.0532 0.9588
-6.6526 6.6455 -5.1502 0.9580
-7.7323 6.2367 -5.4409 0.9557
-8.4390 5.8730 -5.6312 0.9542
-0.7296 6.3828 -3.7091 0.9708
-0.9711 6.4609 -3.7721 0.9703
-1.4523 6.4963 -3.8432 0.9697
-1.9246 6.4333 -3.8769 0.9695
-2.4634 6.5163 -4.0221 0.9683
-2.7427 6.5452 -4.0973 0.9678
-3.3199 6.5753 -4.2527 0.9666
-3.6172 6.5752 -4.3327 0.9659
-4.2274 6.5421 -4.4971 0.9647
-4.8552 6.4611 -4.6661 0.9634
-5.1742 6.4010 -4.7520 0.9627
-5.8188 6.2391 -4.9256 0.9614
-6.1427 6.1362 -5.0128 0.9607
-6.4664 6.0179 -5.1000 0.9600
-6.7889 5.8840 -5.1869 0.9594
-7.4253 5.5674 -5.3582 0.9580
