ply
format ascii 1.0
element vertex 137
property float32 x
property float32 y
property float32 z
property float32 I
end_header
-16.3277 2.2217 -0.4640 0.9362
-16.6393 3.4817 -1.2465 0.9341
-15.9287 1.5938 -1.1738 0.9378
-16.7364 4.1274 -1.6549 0.9331
-16.5093 3.4545 -1.6193 0.9345
-16.0558 2.1847 -1.5556 0.9370
-15.8310 1.5840 -1.5274 0.9381
-16.6270 4.1004 -2.0342 0.9333
-16.3623 3.4238 -1.9857 0.9349
-16.1123 2.7783 -1.9422 0.9363
-15.9441 2.1695 -1.9114 0.9372
-16.5097 4.0715 -2.4093 0.9336
-15.8363 2.1548 -2.2645 0.9375
-16.2002 3.3898 -2.7266 0.9351
-15.7402 2.1418 -2.6169 0.9376
-28.8205 -4.3229 -4.8010 0.8886
-28.0542 -5.2326 -4.7013 0.8908
-15.6283 2.1265 -2.9646 0.9378
-15.7533 2.7164 -3.3791 0.9367
-28.5234 -4.2783 -6.0967 0.8888
-27.7603 -5.1778 -5.9692 0.8910
-27.7962 7.9118 -6.7922 0.8880
-15.4655 2.1044 -3.6683 0.9379
-15.2493 1.5258 -3.6018 0.9390
-27.5957 -5.1470 -6.5975 0.8911
-27.4304 7.8077 -8.0738 0.8882
-15.5234 2.6768 -4.4594 0.9366
-43.9177 15.9482 -14.3712 0.8224
-15.4579 2.6655 -4.8247 0.9365
-37.1131 14.9892 -13.3048 0.8447
-27.7242 10.0678 -9.8045 0.8831
-44.9062 12.7819 -15.5200 0.8213
-44.5502 -11.6336 -15.3053 0.8236
-27.5992 10.0223 -10.5003 0.8827
-31.8792 10.3109 -11.9817 0.8673
-34.2715 8.4517 -12.6229 0.8608
-35.3339 7.3935 -12.9093 0.8578
-37.0183 5.0371 -13.3600 0.8532
-38.0281 2.4451 -13.6272 0.8505
-38.2402 1.0976 -13.6806 0.8500
-38.0826 -1.6133 -13.6308 0.8505
-37.7076 -2.9416 -13.5255 0.8516
-32.0883 -10.8642 -12.1149 0.8660
-24.3951 8.8588 -9.9460 0.8948
-26.1316 7.4380 -10.4119 0.8901
-26.9030 6.6346 -10.6186 0.8881
-28.1890 4.8607 -10.9620 0.8847
-28.6795 3.9024 -11.0918 0.8834
-29.3224 1.8854 -11.2601 0.8817
-28.8538 -3.2852 -11.1287 0.8830
-28.4117 -4.2616 -11.0097 0.8842
-26.8760 -5.0128 -10.4770 0.8895
-27.4786 -6.1423 -10.7902 0.8864
-25.9911 -8.7999 -10.5157 0.8891
-20.2407 7.3502 -8.8133 0.9111
-20.8998 6.7597 -8.9901 0.9094
-22.0656 5.4416 -9.3015 0.9064
-22.5644 4.7215 -9.4351 0.9052
-23.3637 3.1791 -9.6503 0.9031
-23.8492 1.5334 -9.7810 0.9019
-23.9643 0.6878 -9.8120 0.9016
-23.9916 -0.1637 -9.8194 0.9015
-23.9304 -1.0138 -9.8029 0.9017
-23.9148 -4.4605 -9.9565 0.9002
-22.8777 -5.9741 -9.6773 0.9029
-22.2648 -6.6670 -9.5122 0.9044
-21.5993 -7.3130 -9.3330 0.9061
-17.7938 5.7551 -8.1504 0.9216
-18.7026 4.6122 -8.3951 0.9194
-19.0871 3.9939 -8.4987 0.9184
-20.1473 0.5782 -8.7842 0.9158
-20.3351 -0.8614 -8.8703 0.9150
-20.5162 -3.0773 -9.0413 0.9135
-19.4131 -5.0694 -8.7443 0.9162
-18.9420 -5.6720 -8.6174 0.9173
-18.4276 -6.2391 -8.4789 0.9186
-14.6079 5.8998 -7.2924 0.9329
-15.8443 4.5098 -7.6254 0.9300
-16.4948 3.4515 -7.8006 0.9284
-16.7577 2.8896 -7.8714 0.9278
-16.9750 2.3098 -7.9299 0.9273
-17.2638 1.1100 -8.0076 0.9266
-17.9438 0.5150 -8.3093 0.9239
-18.1631 -0.1239 -8.4076 0.9231
-18.1254 -0.7678 -8.3975 0.9231
-17.6911 -2.6535 -8.2805 0.9242
-17.1522 -3.8340 -8.1354 0.9255
-16.8160 -4.3912 -8.0449 0.9263
-16.4398 -4.9228 -7.9436 0.9271
-13.2978 4.8289 -6.9396 0.9389
-13.6392 4.4114 -7.0316 0.9381
-13.9528 3.9715 -7.1160 0.9374
-14.4860 3.0311 -7.2596 0.9362
-15.0388 2.0463 -7.4449 0.9346
-15.8226 1.0173 -7.7774 0.9318
-15.7887 -1.2317 -7.7682 0.9319
-15.5103 -2.3264 -7.6933 0.9325
-15.3096 -2.8555 -7.6392 0.9330
-14.1460 -4.7895 -7.3259 0.9356
-11.5735 4.6743 -6.4753 0.9453
-12.1713 3.9366 -6.6363 0.9440
-12.6849 3.1282 -6.7778 0.9428
-13.3514 2.7937 -7.0764 0.9404
-13.6626 2.3559 -7.1925 0.9394
-13.8298 1.8818 -7.2407 0.9390
-14.0346 0.9024 -7.2959 0.9386
-14.0828 0.4042 -7.3089 0.9385
-14.0686 -0.5960 -7.3050 0.9385
-14.0063 -1.0926 -7.2883 0.9387
-13.4069 -2.9968 -7.1268 0.9400
-12.9165 -3.8678 -6.9948 0.9411
-12.6303 -4.2763 -6.9177 0.9417
-10.4502 4.2206 -6.1728 0.9499
-10.7416 3.9007 -6.2591 0.9492
-11.9258 2.9410 -6.7275 0.9455
-12.2742 2.1165 -6.8218 0.9448
-12.4056 1.6880 -6.8572 0.9445
-12.5077 1.2514 -6.8847 0.9443
-12.6203 0.3622 -6.9150 0.9440
-12.2161 -2.2785 -6.8062 0.9449
-12.0457 -2.6926 -6.7603 0.9453
-11.3820 -3.8537 -6.5816 0.9467
-9.9359 4.0129 -6.1867 0.9517
-10.1891 3.7000 -6.2585 0.9512
-10.4190 3.3699 -6.3223 0.9507
-10.6241 3.0240 -6.3775 0.9503
-10.9697 2.2954 -6.4705 0.9496
-11.1078 1.9154 -6.5077 0.9493
-11.3710 0.7311 -6.5786 0.9487
-11.4062 0.3274 -6.5881 0.9487
-11.3504 -0.8854 -6.5730 0.9488
-11.2784 -1.2841 -6.5537 0.9489
-11.1806 -1.6770 -6.5273 0.9491
-11.0576 -2.0624 -6.4942 0.9494
-10.9104 -2.4388 -6.4546 0.9497
-10.7400 -2.8046 -6.4087 0.9500
-10.3349 -3.4992 -6.2996 0.9509
