ply
format ascii 1.0
element vertex 189
property float32 x
property float32 y
property float32 z
property float32 I
end_header
-27.5065 29.3029 -2.0382 0.8513
-32.3390 32.0730 -3.3396 0.8330
-31.2832 28.8832 -3.1219 0.8430
-33.6449 28.9063 -3.2524 0.8370
-31.2860 28.8858 -4.0881 0.8427
-16.5427 3.5160 -1.6237 0.9343
-16.0680 2.2306 -1.5574 0.9369
-31.2888 28.8883 -5.0586 0.8424
-39.0407 28.9650 -5.7745 0.8222
-15.9601 2.2157 -1.9140 0.9372
-29.2125 28.9722 -5.8295 0.8469
-31.2916 28.8908 -6.0344 0.8419
-36.2263 28.9399 -6.5697 0.8292
-41.0944 26.1566 -6.9021 0.8214
-15.8552 2.2011 -2.2681 0.9374
-31.2943 28.8934 -7.0167 0.8414
-33.6573 28.9170 -7.3101 0.8354
-38.4749 28.5451 -7.8923 0.8235
-38.5393 26.5117 -7.7061 0.8273
-38.5985 24.5680 -7.5375 0.8307
-42.3698 24.8871 -8.0950 0.8194
-16.2168 3.4467 -2.7312 0.9350
-15.9295 2.7948 -2.6643 0.9365
-15.7622 2.1882 -2.6216 0.9375
-31.2972 28.8960 -8.0066 0.8408
-33.6605 28.9197 -8.3413 0.8348
-38.1944 28.3370 -8.9391 0.8240
-38.3297 24.3969 -8.5401 0.8312
-16.3349 4.0869 -3.1650 0.9338
-15.6511 2.1728 -2.9700 0.9377
-31.3000 28.8987 -9.0049 0.8402
-33.6637 28.9225 -9.3814 0.8341
-37.9157 28.1303 -9.9795 0.8245
-38.1266 22.3948 -9.3467 0.8346
-16.2156 4.0571 -3.5333 0.9339
-15.9889 3.3983 -3.4552 0.9354
-15.7241 2.7588 -3.3745 0.9368
-29.1187 28.8792 -9.6386 0.8449
-31.3029 28.9013 -10.0131 0.8394
-33.6669 28.9252 -10.4318 0.8333
-37.7963 24.0574 -10.5298 0.8319
-41.2243 20.4043 -10.8105 0.8278
-35.6383 11.6776 -8.8140 0.8572
-16.0955 4.0271 -3.8994 0.9341
-15.4778 2.1487 -3.6725 0.9378
-24.5318 30.1936 -10.0728 0.8515
-31.8558 33.9362 -12.0514 0.8250
-29.1213 28.8818 -10.6195 0.8441
-30.4379 28.1027 -10.7263 0.8427
-36.2442 28.9542 -12.0111 0.8256
-37.4504 25.7626 -11.7694 0.8288
-37.6049 22.0883 -11.2920 0.8351
-37.9485 18.7829 -10.9632 0.8395
-18.6041 8.3944 -5.2846 0.9191
-35.4096 11.6027 -9.6478 0.8573
-15.5467 2.7277 -4.0868 0.9369
-21.5139 24.6262 -9.2572 0.8729
-24.0104 25.5785 -9.9315 0.8643
-26.7966 26.5762 -10.6841 0.8548
-29.9158 27.6206 -11.5266 0.8443
-27.0486 21.6081 -9.8007 0.8660
-37.0870 27.5154 -13.0731 0.8253
-37.1808 25.5771 -12.7756 0.8289
-37.2666 23.7202 -12.5057 0.8322
-34.9819 17.3145 -11.0498 0.8502
-42.8975 17.5393 -13.1199 0.8248
-35.1770 11.5264 -10.4793 0.8574
-15.4372 2.7085 -4.4369 0.9369
-17.4574 19.9829 -8.1614 0.8949
-19.2192 20.4743 -8.6373 0.8891
-23.2025 21.4224 -9.7132 0.8762
-25.4507 21.8662 -10.3205 0.8690
-30.5287 22.6498 -11.6921 0.8529
-33.3854 22.9663 -12.4637 0.8440
-37.2308 18.4276 -12.7773 0.8404
-37.2941 16.8277 -12.5845 0.8426
-38.9249 15.9150 -12.9345 0.8386
-43.3582 15.9442 -14.2092 0.8242
-14.5405 16.6440 -7.3465 0.9110
-16.6450 16.5081 -7.7926 0.9059
-20.3478 17.4820 -8.9172 0.8931
-25.6693 17.6582 -10.3566 0.8769
-18.8213 11.9798 -7.4161 0.9102
-29.6762 17.4311 -11.4404 0.8650
-31.8018 17.1817 -12.0153 0.8587
-35.9482 16.2204 -13.1095 0.8468
-27.7417 10.2015 -9.8253 0.8829
-27.0855 7.8151 -9.3707 0.8880
-14.4518 14.3329 -7.2788 0.9172
-15.5858 14.3901 -7.5859 0.9138
-16.7691 14.4074 -7.9061 0.9104
-18.0003 14.3798 -8.2389 0.9068
-19.2764 14.3015 -8.5834 0.9031
-18.6183 11.8506 -7.8923 0.9105
-18.6928 10.0993 -7.5979 0.9137
-18.9040 9.3567 -7.5430 0.9143
-22.1030 9.0371 -8.5393 0.9035
-26.9029 7.7624 -10.0131 0.8879
-35.2467 7.4913 -12.8860 0.8581
-36.1719 6.3464 -13.1329 0.8556
-36.9666 5.1319 -13.3463 0.8534
-10.7581 12.3144 -6.2663 0.9324
-11.5980 12.3554 -6.4941 0.9300
-12.4696 12.3671 -6.7302 0.9275
-15.2603 12.1909 -7.4850 0.9197
-17.2421 11.8611 -8.0199 0.9143
-19.2829 11.3263 -8.5700 0.9086
-18.6034 10.0510 -8.1031 0.9134
-21.3337 10.5593 -9.1221 0.9031
-26.0471 7.5155 -10.3889 0.8904
-28.1433 4.9378 -10.9498 0.8848
-28.6460 3.9768 -11.0829 0.8835
-9.5215 10.8989 -5.9231 0.9394
-10.9436 10.8536 -6.3082 0.9356
-11.6839 10.7875 -6.5084 0.9336
-13.2133 10.5557 -6.9216 0.9295
-13.9974 10.3849 -7.1333 0.9274
-17.1768 9.2802 -7.9904 0.9191
-18.7189 8.4463 -8.4050 0.9151
-19.4568 7.9552 -8.6031 0.9132
-20.1629 7.4146 -8.7925 0.9113
-22.0153 5.5082 -9.2881 0.9066
-22.5223 4.7869 -9.4237 0.9053
-7.9619 9.7995 -5.5027 0.9464
-9.1394 9.7363 -5.8198 0.9434
-9.7489 9.6687 -5.9840 0.9418
-10.3702 9.5746 -6.1513 0.9403
-11.0017 9.4522 -6.3213 0.9387
-12.2860 9.1152 -6.6672 0.9354
-12.9334 8.8971 -6.8415 0.9338
-14.2228 8.3542 -7.1887 0.9306
-14.8570 8.0269 -7.3595 0.9290
-15.4785 7.6612 -7.5269 0.9274
-16.6644 6.8135 -7.8463 0.9245
-17.7401 5.8129 -8.1359 0.9218
-18.2234 5.2581 -8.2661 0.9206
-19.6752 2.7314 -8.6570 0.9170
-7.7340 8.8528 -5.4414 0.9495
-8.7776 8.7054 -5.7224 0.9470
-9.3111 8.5967 -5.8661 0.9457
-9.8503 8.4629 -6.0113 0.9444
-13.0773 7.0653 -6.8803 0.9366
-13.5873 6.7252 -7.0176 0.9354
-14.0805 6.3533 -7.1504 0.9342
-14.5529 5.9502 -7.2776 0.9330
-16.1581 4.0427 -7.7099 0.9292
-16.4694 3.5004 -7.7937 0.9285
-14.8404 2.6038 -6.9743 0.9357
-16.9601 2.3545 -7.9259 0.9273
-6.6038 8.1279 -5.1370 0.9544
-7.9671 7.9016 -5.5041 0.9512
-8.4318 7.7849 -5.6293 0.9502
-9.8353 7.2969 -6.0072 0.9469
-10.7592 6.8482 -6.2560 0.9448
-11.2108 6.5850 -6.3776 0.9437
-11.6521 6.2953 -6.4965 0.9427
-12.0803 5.9792 -6.6118 0.9417
-12.4925 5.6368 -6.7228 0.9408
-13.6037 4.4575 -7.0220 0.9382
-14.2104 3.5554 -7.1854 0.9368
-14.4652 3.0744 -7.2540 0.9362
-6.0691 7.4698 -4.9930 0.9576
-6.4686 7.4043 -5.1006 0.9567
-9.3197 6.4111 -5.8684 0.9503
-10.4839 5.6642 -6.1819 0.9477
-11.5348 4.7162 -6.4649 0.9454
-12.1414 3.9784 -6.6282 0.9441
-13.2902 2.8247 -7.0487 0.9406
-5.9636 6.8263 -4.9646 0.9595
-7.0537 6.5125 -5.2582 0.9572
-7.4176 6.3729 -5.3562 0.9564
-8.1384 6.0380 -5.5503 0.9548
-8.4924 5.8420 -5.6456 0.9541
-9.1790 5.3915 -5.8305 0.9526
-11.2428 3.6839 -6.4799 0.9475
-11.6730 3.3680 -6.6542 0.9461
-11.9051 2.9786 -6.7214 0.9456
-12.0989 2.5715 -6.7746 0.9452
-5.5218 6.3206 -4.8456 0.9620
-5.8484 6.2303 -4.9336 0.9613
-6.1756 6.1248 -5.0217 0.9606
-6.8282 5.8665 -5.1974 0.9593
-7.1511 5.7128 -5.2844 0.9586
-7.4702 5.5423 -5.3703 0.9579
-9.0790 4.4937 -5.8487 0.9543
-9.9043 4.0495 -6.1778 0.9518
-10.7916 2.7000 -6.4226 0.9499
-10.9563 2.3286 -6.4669 0.9496
-11.2134 1.5567 -6.5362 0.9491
