ply
format ascii 1.0
element vertex 299
property float32 x
property float32 y
property float32 z
property float32 I
end_header
38.2157 -3.9654 6.7746 0.8555
38.0366 2.9050 6.7264 0.8565
38.2855 4.3117 6.7934 0.8551
38.6373 5.7633 6.8882 0.8533
39.0440 7.2661 7.0027 0.8510
37.9029 8.4726 6.8482 0.8541
38.5914 10.0945 7.0336 0.8504
37.9943 12.9159 7.0760 0.8496
34.0399 12.9533 6.4221 0.8625
18.9528 8.0027 3.6276 0.9198
28.0850 13.0664 5.4619 0.8818
30.6856 -4.3029 4.7469 0.8822
30.3809 -2.0529 4.6648 0.8841
30.2898 0.1326 4.6403 0.8846
30.4063 2.3222 4.6716 0.8839
30.7382 4.5850 4.7610 0.8818
30.9915 5.7675 4.8292 0.8802
31.3062 6.9980 4.9143 0.8783
30.2740 7.9189 4.7938 0.8811
30.7186 9.2259 4.9136 0.8783
31.2473 10.6223 5.0559 0.8750
31.8721 12.1283 5.2242 0.8711
19.0812 8.0569 3.1730 0.9196
25.3399 -1.7123 3.3073 0.9026
25.2860 0.1107 3.2928 0.9030
25.3051 1.0204 3.2979 0.9029
25.4364 2.8646 3.3333 0.9019
26.1083 6.8292 3.5142 0.8969
25.1918 7.5660 3.4253 0.8993
25.4925 8.6660 3.5062 0.8971
25.8438 9.8344 3.6008 0.8945
21.7966 -2.2617 2.3531 0.9156
21.7519 -1.4698 2.3411 0.9160
21.7261 -0.6856 2.3342 0.9163
21.7191 0.0951 2.3323 0.9163
21.7307 0.8762 2.3354 0.9162
21.8104 2.4563 2.3568 0.9155
21.9691 4.0884 2.3996 0.9140
22.0804 4.9357 2.4295 0.9130
22.2146 5.8108 2.4657 0.9118
21.7534 8.2779 2.4993 0.9106
22.5770 11.5076 2.7211 0.9031
19.1312 -2.6827 1.6353 0.9254
7.6127 -0.7899 0.6479 0.9697
7.6062 -0.5140 0.6454 0.9699
7.6024 -0.2399 0.6439 0.9699
7.6013 0.0333 0.6435 0.9699
7.6030 0.3066 0.6441 0.9699
7.6076 0.5810 0.6459 0.9698
19.1965 3.5725 1.6529 0.9246
19.3437 5.0598 1.6926 0.9229
7.0722 -0.7338 0.4409 0.9719
7.0661 -0.2230 0.4384 0.9721
7.0666 0.2849 0.4386 0.9721
7.0692 0.5399 0.4396 0.9720
17.0213 2.5389 1.0672 0.9334
17.1374 4.4827 1.0984 0.9315
17.2550 5.8657 1.1301 0.9296
16.7183 7.7781 1.1434 0.9288
16.8194 8.5729 1.1706 0.9271
6.6045 -0.6853 0.2618 0.9738
6.6026 -0.4462 0.2609 0.9739
6.6018 -0.2083 0.2604 0.9739
6.6014 0.0289 0.2603 0.9739
6.6019 0.2662 0.2605 0.9739
6.6030 0.5043 0.2611 0.9738
6.6051 0.7439 0.2621 0.9737
15.3275 2.2863 0.6111 0.9398
15.3635 3.4342 0.6207 0.9389
15.3873 4.0249 0.6272 0.9383
15.4843 5.8922 0.6533 0.9358
15.5535 7.2362 0.6764 0.9336
6.1951 -0.4186 0.1049 0.9755
6.1950 -0.1955 0.1047 0.9755
6.1952 0.0271 0.1047 0.9755
6.1952 0.4731 0.1050 0.9754
6.1957 0.6978 0.1053 0.9754
13.9483 2.5958 0.2397 0.9448
13.9554 3.1195 0.2416 0.9444
13.9736 4.1967 0.2465 0.9433
13.9979 5.3266 0.2530 0.9418
5.8512 -0.8205 -0.0333 0.9766
5.8518 -0.3954 -0.0330 0.9768
5.8520 -0.1847 -0.0330 0.9769
5.8518 0.4469 -0.0330 0.9768
12.7845 2.8578 -0.0738 0.9489
12.7762 4.3432 -0.0760 0.9475
12.7590 6.5033 -0.0806 0.9443
5.5439 -0.5752 -0.1569 0.9779
5.5456 -0.1750 -0.1562 0.9780
5.5455 0.2236 -0.1563 0.9780
5.5448 0.4235 -0.1566 0.9780
5.5418 0.8266 -0.1578 0.9778
5.5396 1.0309 -0.1587 0.9777
11.7596 3.9976 -0.3497 0.9515
11.7444 4.4691 -0.3538 0.9510
5.2640 -0.7381 -0.2696 0.9789
5.2666 -0.5465 -0.2685 0.9790
5.2695 -0.1663 -0.2674 0.9791
5.2698 0.0231 -0.2673 0.9791
5.2693 0.2125 -0.2674 0.9791
10.9461 2.4468 -0.5688 0.9561
10.9306 2.8592 -0.5730 0.9558
10.9126 3.2774 -0.5778 0.9554
10.8684 4.1358 -0.5897 0.9545
10.8420 4.5780 -0.5968 0.9540
10.8125 5.0304 -0.6048 0.9534
10.7798 5.4945 -0.6136 0.9527
5.0200 0.0220 -0.3681 0.9801
10.2098 2.2822 -0.7671 0.9589
10.1677 3.0537 -0.7784 0.9583
10.1418 3.4476 -0.7854 0.9579
10.1124 3.8481 -0.7933 0.9575
10.0793 4.2559 -0.8022 0.9571
10.0425 4.6722 -0.8121 0.9565
4.8000 -0.3243 -0.4619 0.9809
4.8020 0.0210 -0.4610 0.9809
9.4149 3.9754 -0.9811 0.9598
9.3264 4.7537 -1.0050 0.9588
4.5959 -0.4769 -0.5489 0.9816
4.5990 -0.3108 -0.5475 0.9816
4.6005 0.1855 -0.5469 0.9816
4.5984 0.3512 -0.5478 0.9816
4.5950 0.5175 -0.5493 0.9815
4.5841 0.8531 -0.5539 0.9814
8.9081 3.0283 -1.1176 0.9628
8.8714 3.3758 -1.1275 0.9625
4.5449 -0.6373 -0.6503 0.9816
4.5432 -0.1434 -0.6440 0.9818
4.5436 0.3470 -0.6457 0.9818
4.5451 0.6779 -0.6511 0.9816
4.5462 0.8460 -0.6552 0.9815
4.5475 1.0165 -0.6602 0.9814
8.4282 2.5313 -1.2469 0.9651
8.3549 3.1793 -1.2666 0.9645
8.3114 3.5094 -1.2783 0.9642
8.2631 3.8444 -1.2913 0.9639
4.5747 -0.6415 -0.7610 0.9814
4.5731 -0.3090 -0.7551 0.9816
4.5732 0.3493 -0.7556 0.9816
4.5739 0.5151 -0.7583 0.9815
4.5762 0.8516 -0.7668 0.9813
4.5778 1.0233 -0.7728 0.9812
7.9998 2.0925 -1.3622 0.9670
7.8924 3.0033 -1.3911 0.9663
7.8473 3.3135 -1.4033 0.9661
7.7423 3.9463 -1.4316 0.9654
4.6051 -0.6458 -0.8741 0.9813
4.6040 -0.4777 -0.8700 0.9813
4.6033 -0.3111 -0.8672 0.9814
4.6028 -0.1453 -0.8656 0.9814
4.6029 0.1856 -0.8659 0.9814
4.6034 0.3516 -0.8678 0.9814
4.6043 0.5185 -0.8709 0.9813
4.6054 0.6870 -0.8752 0.9812
4.6088 1.0302 -0.8876 0.9810
7.5856 1.9842 -1.4738 0.9686
7.5535 2.2686 -1.4824 0.9684
7.5168 2.5553 -1.4923 0.9682
7.4294 3.1370 -1.5158 0.9677
7.3221 3.7320 -1.5447 0.9671
4.6362 -0.6501 -0.9896 0.9810
4.6335 0.0203 -0.9794 0.9812
4.6366 0.6916 -0.9909 0.9810
4.6383 0.8632 -0.9973 0.9809
4.6404 1.0373 -1.0051 0.9807
7.2092 1.8857 -1.5751 0.9700
7.1766 2.1554 -1.5839 0.9698
7.1394 2.4270 -1.5939 0.9696
7.0975 2.7008 -1.6052 0.9694
7.0507 2.9771 -1.6178 0.9692
6.9990 3.2562 -1.6317 0.9689
4.6667 -0.4842 -1.1027 0.9809
4.6659 0.3563 -1.0998 0.9810
4.6670 0.5256 -1.1038 0.9809
6.8652 1.7958 -1.6678 0.9713
6.7527 2.5696 -1.6981 0.9707
6.5965 3.3623 -1.7401 0.9700
4.6974 -0.1482 -1.2169 0.9808
4.6975 0.1894 -1.2173 0.9808
4.6983 0.3588 -1.2200 0.9807
4.7033 0.8753 -1.2387 0.9804
4.7059 1.0519 -1.2485 0.9803
6.3377 2.9485 -1.8098 0.9715
6.2806 3.2012 -1.8252 0.9713
4.7325 -0.4911 -1.3469 0.9804
4.7312 -0.3197 -1.3424 0.9805
4.7305 -0.1493 -1.3399 0.9805
4.7347 0.7062 -1.3552 0.9803
4.7371 0.8816 -1.3641 0.9802
6.2581 1.6370 -1.8312 0.9735
6.1878 2.1035 -1.8502 0.9732
6.1457 2.3386 -1.8615 0.9730
5.9902 3.0533 -1.9034 0.9724
4.7686 -0.6687 -1.4811 0.9801
4.7667 -0.4946 -1.4740 0.9801
4.7653 -0.3220 -1.4691 0.9802
4.7646 -0.1504 -1.4662 0.9802
4.7647 0.1921 -1.4667 0.9802
4.7656 0.3639 -1.4701 0.9802
4.7691 0.7114 -1.4831 0.9800
4.7718 0.8880 -1.4929 0.9799
5.9884 1.5664 -1.9039 0.9744
5.9185 2.0120 -1.9227 0.9742
5.8766 2.2362 -1.9340 0.9740
5.8301 2.4617 -1.9465 0.9739
5.7787 2.6885 -1.9603 0.9737
5.8443 0.0256 -1.9427 0.9757
5.8349 0.4456 -1.9452 0.9756
5.7894 1.0774 -1.9575 0.9755
5.7377 1.5008 -1.9714 0.9753
5.6268 2.1412 -2.0012 0.9749
5.5299 2.5727 -2.0274 0.9746
5.4741 2.7902 -2.0424 0.9744
5.6078 -0.1770 -2.0064 0.9764
5.6000 0.4277 -2.0085 0.9764
5.5892 0.6295 -2.0114 0.9764
5.5550 1.0338 -2.0206 0.9763
5.5315 1.2365 -2.0269 0.9762
5.4351 1.8476 -2.0529 0.9759
5.3438 2.2564 -2.0744 0.9757
5.2432 2.6725 -2.1045 0.9753
5.3584 -0.7514 -2.0735 0.9771
5.3723 -0.5574 -2.0698 0.9771
5.3820 -0.3637 -2.0672 0.9772
5.3876 -0.1700 -2.0657 0.9772
5.3892 0.0236 -2.0652 0.9772
5.3866 0.2172 -2.0659 0.9772
5.3544 0.7987 -2.0746 0.9771
5.3354 0.9929 -2.0797 0.9770
5.2531 1.5777 -2.1019 0.9768
5.2063 1.7698 -2.1073 0.9767
5.1315 2.1667 -2.1346 0.9764
5.1519 -0.7224 -2.1292 0.9778
5.1655 -0.5360 -2.1255 0.9778
5.1751 -0.3497 -2.1229 0.9778
5.1732 0.3951 -2.1234 0.9778
5.1479 0.7679 -2.1302 0.9778
5.0792 1.3286 -2.1487 0.9776
5.0479 1.5160 -2.1571 0.9775
4.9725 1.8922 -2.1775 0.9773
4.8793 2.2701 -2.2025 0.9770
4.8260 2.4598 -2.2169 0.9769
4.9572 -0.6951 -2.1816 0.9784
4.9871 0.0218 -2.1735 0.9785
4.9782 0.3802 -2.1759 0.9785
4.9678 0.5594 -2.1787 0.9784
4.9348 0.9184 -2.1876 0.9783
4.9122 1.0980 -2.1937 0.9783
4.8548 1.4581 -2.2092 0.9781
4.8198 1.6384 -2.2186 0.9780
4.7805 1.8191 -2.2292 0.9779
4.7369 2.0001 -2.2409 0.9778
4.6364 2.3632 -2.2680 0.9775
4.7733 -0.6693 -2.2311 0.9790
4.7959 -0.3241 -2.2250 0.9790
4.8003 0.1936 -2.2238 0.9790
4.7940 0.3661 -2.2255 0.9790
4.7694 0.7114 -2.2321 0.9790
4.7290 1.0571 -2.2430 0.9789
4.5994 1.7502 -2.2779 0.9785
4.5094 2.0979 -2.3022 0.9783
4.4578 2.2722 -2.3160 0.9782
4.5991 -0.6449 -2.2780 0.9795
4.6121 -0.4786 -2.2745 0.9796
4.6266 -0.1460 -2.2706 0.9796
4.6281 0.0203 -2.2702 0.9796
4.6093 0.5191 -2.2753 0.9795
4.5953 0.6854 -2.2790 0.9795
4.5774 0.8518 -2.2839 0.9795
4.5555 1.0183 -2.2897 0.9794
4.4281 1.6850 -2.3240 0.9791
4.4464 -0.4614 -2.3191 0.9801
4.4555 -0.3011 -2.3167 0.9801
4.4607 -0.1408 -2.3153 0.9801
4.4621 0.0195 -2.3149 0.9801
4.4536 0.3401 -2.3172 0.9801
4.4437 0.5004 -2.3199 0.9801
4.4123 0.8211 -2.3283 0.9800
4.3908 0.9815 -2.3341 0.9799
4.3030 1.4628 -2.3577 0.9797
4.1790 1.9442 -2.3911 0.9794
4.1294 2.1048 -2.4045 0.9793
4.3028 -0.1358 -2.3578 0.9806
4.2860 0.4827 -2.3623 0.9805
4.2725 0.6373 -2.3660 0.9805
4.2552 0.7919 -2.3706 0.9805
4.2093 1.1010 -2.3830 0.9804
4.1805 1.2555 -2.3907 0.9803
4.1479 1.4100 -2.3995 0.9802
4.1470 -0.2802 -2.3997 0.9810
4.1512 0.1674 -2.3986 0.9810
4.1224 0.6149 -2.4064 0.9809
4.1054 0.7640 -2.4109 0.9809
4.0603 1.0621 -2.4231 0.9808
4.0321 1.2110 -2.4307 0.9807
4.0002 1.3598 -2.4393 0.9807
3.9247 1.6572 -2.4596 0.9805
3.8811 1.8056 -2.4714 0.9804
