ply
format ascii 1.0
element vertex 275
property float32 x
property float32 y
property float32 z
property float32 I
end_header
44.1653 -19.8044 8.5346 0.8215
40.8325 -13.3832 7.5767 0.8399
41.0211 -11.8753 7.5301 0.8408
39.9113 -27.0841 7.3891 0.8227
38.0231 -23.9067 6.8806 0.8338
36.8082 -19.6998 6.3956 0.8446
35.6563 -17.5095 6.0854 0.8515
33.1401 -12.1595 5.4078 0.8669
32.5367 -10.6642 5.2454 0.8706
15.3184 -17.1167 2.9912 0.9115
24.6156 -22.2951 4.3248 0.8746
32.5615 -23.7990 5.2520 0.8499
28.9203 -15.4782 4.2715 0.8761
28.3095 -13.9018 4.1070 0.8805
26.9296 -9.8808 3.7354 0.8907
26.5890 -8.7148 3.6437 0.8933
26.2968 -7.6127 3.5650 0.8954
15.3176 -17.1158 2.4665 0.9117
24.5206 -25.5445 3.8023 0.8672
24.6835 -22.3566 3.5761 0.8746
24.6445 -18.0125 3.2779 0.8844
24.0733 -16.3363 3.1241 0.8895
23.4965 -11.5383 2.8109 0.9000
22.7004 -8.3291 2.5965 0.9073
22.5000 -7.3746 2.5426 0.9091
22.3270 -6.4635 2.4959 0.9107
15.3168 -17.1148 1.9443 0.9119
19.1694 -18.6218 2.2624 0.8983
20.7809 -16.3321 2.2374 0.8993
20.4252 -14.9286 2.1417 0.9034
20.1134 -13.6490 2.0577 0.9070
19.8390 -12.4736 1.9838 0.9102
20.4881 -11.9041 2.0059 0.9093
20.2941 -10.8615 1.9485 0.9117
19.9216 -8.9332 1.8482 0.9161
19.6321 -7.2033 1.7703 0.9195
19.5137 -6.3958 1.7384 0.9209
16.3561 -17.0391 1.4646 0.9097
17.8516 -15.0678 1.4486 0.9106
17.6381 -13.8622 1.3911 0.9140
17.2815 -11.7273 1.2951 0.9197
17.9169 -11.2651 1.3124 0.9187
17.7984 -10.3413 1.2765 0.9208
17.6746 -9.4595 1.2431 0.9228
17.4662 -7.8321 1.1870 0.9262
17.3023 -6.3485 1.1429 0.9288
15.5429 -14.0777 0.8269 0.9195
15.6590 -8.3807 0.7003 0.9314
15.6038 -7.6625 0.6855 0.9328
15.5105 -6.3141 0.6603 0.9352
15.4715 -5.6767 0.6498 0.9362
15.4371 -5.0596 0.6406 0.9370
13.6675 -13.2771 0.3219 0.9266
13.6254 -12.3409 0.3105 0.9291
13.6186 -11.4949 0.3010 0.9312
14.1584 -10.3483 0.2962 0.9322
14.0798 -8.1807 0.2751 0.9369
14.0223 -6.2878 0.2596 0.9404
14.0070 -5.7020 0.2555 0.9413
13.9933 -5.1344 0.2518 0.9421
12.1068 -12.6123 -0.0984 0.9325
12.7366 -8.6431 -0.0867 0.9403
12.7436 -8.0125 -0.0848 0.9416
12.7611 -6.2665 -0.0800 0.9447
12.7739 -4.6869 -0.0766 0.9470
12.7802 -3.6998 -0.0749 0.9482
11.4866 -9.6954 -0.4232 0.9416
11.5257 -9.0582 -0.4127 0.9430
11.6228 -7.3077 -0.3866 0.9465
11.6496 -6.7687 -0.3794 0.9475
11.6739 -6.2479 -0.3728 0.9484
11.6959 -5.7434 -0.3669 0.9492
11.7337 -4.7766 -0.3567 0.9506
11.7639 -3.8557 -0.3486 0.9517
11.7764 -3.4092 -0.3452 0.9521
10.2664 -10.6951 -0.7518 0.9424
10.3428 -10.0474 -0.7313 0.9439
10.4126 -9.4311 -0.7125 0.9453
10.4765 -8.8428 -0.6953 0.9466
10.5350 -8.2796 -0.6795 0.9477
10.5885 -7.7390 -0.6651 0.9488
10.7938 -5.3004 -0.6098 0.9530
10.8985 -3.5721 -0.5816 0.9551
10.9178 -3.1606 -0.5764 0.9555
9.2725 -10.3610 -1.0195 0.9458
9.3731 -9.7644 -0.9924 0.9472
9.6994 -7.6230 -0.9045 0.9517
9.7651 -7.1372 -0.8868 0.9526
9.8253 -6.6675 -0.8706 0.9535
9.9311 -5.7702 -0.8422 0.9550
9.9772 -5.3398 -0.8297 0.9556
10.0192 -4.9201 -0.8184 0.9562
10.0917 -4.1082 -0.7989 0.9572
10.1226 -3.7141 -0.7906 0.9577
10.1501 -3.3268 -0.7832 0.9581
10.1744 -2.9454 -0.7766 0.9584
8.5093 -9.5082 -1.2250 0.9500
8.6204 -8.9804 -1.1951 0.9512
8.8172 -7.9860 -1.1421 0.9533
8.9043 -7.5157 -1.1187 0.9543
9.1263 -6.1932 -1.0589 0.9566
9.1888 -5.7774 -1.0420 0.9573
9.2461 -5.3722 -1.0266 0.9579
9.3462 -4.5896 -0.9996 0.9590
9.4643 -3.4726 -0.9678 0.9603
9.4958 -3.1123 -0.9594 0.9606
9.5237 -2.7570 -0.9519 0.9609
7.8596 -8.7823 -1.4000 0.9536
8.0858 -7.8548 -1.3391 0.9556
8.1863 -7.4146 -1.3120 0.9565
8.2793 -6.9882 -1.2870 0.9573
8.3652 -6.5744 -1.2638 0.9580
8.4445 -6.1721 -1.2425 0.9587
8.8456 -3.6009 -1.1345 0.9623
8.8841 -3.2597 -1.1241 0.9626
7.5327 -7.3176 -1.4880 0.9585
7.6370 -6.9170 -1.4599 0.9592
7.8231 -6.1483 -1.4098 0.9606
7.9059 -5.7784 -1.3875 0.9612
7.9825 -5.4170 -1.3669 0.9618
8.1183 -4.7169 -1.3303 0.9628
8.1780 -4.3769 -1.3142 0.9632
8.2326 -4.0427 -1.2995 0.9636
8.3276 -3.3900 -1.2740 0.9643
6.8107 -7.6102 -1.6824 0.9594
7.3441 -5.7719 -1.5388 0.9628
7.4291 -5.4299 -1.5159 0.9634
7.5805 -4.7662 -1.4751 0.9644
7.7093 -4.1260 -1.4405 0.9652
7.9063 -2.9009 -1.3874 0.9664
6.7251 -6.0912 -1.7055 0.9637
6.8248 -5.7605 -1.6787 0.9643
6.9174 -5.4366 -1.6537 0.9648
7.0035 -5.1188 -1.6305 0.9653
7.0834 -4.8068 -1.6090 0.9658
7.1573 -4.5001 -1.5891 0.9662
7.2256 -4.1982 -1.5707 0.9666
7.2884 -3.9008 -1.5538 0.9669
7.5285 -2.4675 -1.4891 0.9683
7.5629 -2.1894 -1.4799 0.9685
5.9982 -6.7023 -1.9012 0.9639
6.3419 -5.7441 -1.8087 0.9656
6.4416 -5.4371 -1.7818 0.9661
6.5346 -5.1356 -1.7568 0.9666
6.7013 -4.5476 -1.7119 0.9674
6.9664 -3.4209 -1.6405 0.9688
5.6561 -6.3201 -1.9933 0.9657
5.7773 -6.0185 -1.9607 0.9663
5.9969 -5.4316 -1.9016 0.9673
6.1887 -4.8639 -1.8499 0.9682
6.2750 -4.5864 -1.8267 0.9686
6.3553 -4.3127 -1.8051 0.9689
6.4987 -3.7759 -1.7664 0.9696
6.5624 -3.5122 -1.7493 0.9699
6.7672 -2.4830 -1.6941 0.9708
6.8068 -2.2310 -1.6835 0.9710
5.5794 -5.4200 -2.0140 0.9684
5.6844 -5.1485 -1.9857 0.9688
5.7827 -4.8809 -1.9593 0.9692
5.8745 -4.6169 -1.9345 0.9696
6.1142 -3.8443 -1.8700 0.9706
6.1830 -3.5925 -1.8515 0.9709
6.3049 -3.0961 -1.8186 0.9714
6.3584 -2.8512 -1.8042 0.9716
6.4909 -2.1274 -1.7686 0.9722
6.5261 -1.8892 -1.7591 0.9723
5.0685 -5.6635 -2.1516 0.9689
5.6724 -4.1459 -1.9890 0.9712
5.8250 -3.6624 -1.9479 0.9718
5.8932 -3.4241 -1.9295 0.9721
6.0144 -2.9535 -1.8969 0.9725
6.0677 -2.7209 -1.8825 0.9727
6.1163 -2.4899 -1.8694 0.9729
4.8138 -5.3788 -2.2202 0.9702
5.0372 -4.8933 -2.1600 0.9710
5.1390 -4.6546 -2.1326 0.9714
5.2346 -4.4183 -2.1069 0.9717
5.3241 -4.1843 -2.0828 0.9721
5.4078 -3.9525 -2.0602 0.9724
5.5587 -3.4950 -2.0196 0.9729
5.6262 -3.2690 -2.0014 0.9731
5.6887 -3.0446 -1.9846 0.9734
5.7992 -2.6005 -1.9548 0.9738
5.8474 -2.3804 -1.9418 0.9739
5.9303 -1.9437 -1.9195 0.9742
5.9652 -1.7269 -1.9101 0.9743
4.5803 -5.1180 -2.2831 0.9715
4.6931 -4.8890 -2.2527 0.9718
4.9931 -4.2144 -2.1719 0.9728
5.0812 -3.9934 -2.1482 0.9731
5.1636 -3.7740 -2.1260 0.9734
5.3124 -3.3401 -2.0859 0.9739
5.3791 -3.1254 -2.0680 0.9741
5.5502 -2.4888 -2.0219 0.9747
5.5979 -2.2788 -2.0090 0.9748
5.6801 -1.8617 -1.9869 0.9751
4.3654 -4.8779 -2.3409 0.9726
4.4757 -4.6626 -2.3112 0.9729
4.5797 -4.4488 -2.2832 0.9732
4.7697 -4.0259 -2.2321 0.9738
4.8562 -3.8166 -2.2088 0.9741
4.9373 -3.6086 -2.1869 0.9744
5.1495 -2.9920 -2.1298 0.9750
5.3183 -2.3848 -2.0843 0.9755
5.3655 -2.1842 -2.0716 0.9757
5.4467 -1.7852 -2.0497 0.9759
5.4810 -1.5867 -2.0405 0.9761
4.2745 -4.4529 -2.3654 0.9739
4.4721 -4.0505 -2.3122 0.9745
4.8012 -3.2582 -2.2236 0.9755
4.8708 -3.0625 -2.2048 0.9757
5.0508 -2.4803 -2.1564 0.9762
5.2623 -1.5234 -2.0994 0.9768
3.9824 -4.4499 -2.4441 0.9745
4.0875 -4.2582 -2.4158 0.9748
4.2807 -3.8771 -2.3638 0.9753
4.3691 -3.6877 -2.3400 0.9756
4.5302 -3.3111 -2.2966 0.9760
4.6033 -3.1238 -2.2769 0.9762
4.7352 -2.7513 -2.2414 0.9766
4.8988 -2.1967 -2.1973 0.9771
4.9862 -1.8295 -2.1738 0.9773
5.0237 -1.6466 -2.1637 0.9774
3.8107 -4.2580 -2.4903 0.9754
4.1883 -3.5352 -2.3886 0.9764
4.2697 -3.3556 -2.3667 0.9766
4.3462 -3.1766 -2.3461 0.9768
4.4848 -2.8198 -2.3088 0.9771
4.5472 -2.6420 -2.2920 0.9773
4.6587 -2.2878 -2.2619 0.9776
4.7080 -2.1112 -2.2487 0.9777
4.8309 -1.5834 -2.2156 0.9781
4.8637 -1.4080 -2.2067 0.9781
3.6501 -4.0786 -2.5336 0.9762
3.8447 -3.7349 -2.4811 0.9767
3.9342 -3.5634 -2.4570 0.9769
4.0984 -3.2210 -2.4128 0.9773
4.2434 -2.8796 -2.3738 0.9776
4.3091 -2.7093 -2.3561 0.9778
4.3703 -2.5392 -2.3396 0.9780
4.5282 -2.0305 -2.2971 0.9784
4.5725 -1.8614 -2.2852 0.9785
4.6127 -1.6925 -2.2743 0.9786
4.6813 -1.3552 -2.2559 0.9787
3.4996 -3.9104 -2.5741 0.9769
4.0103 -2.9311 -2.4366 0.9781
4.2591 -2.2795 -2.3696 0.9787
4.3107 -2.1168 -2.3557 0.9788
4.3582 -1.9543 -2.3429 0.9789
4.4017 -1.7919 -2.3312 0.9790
4.4768 -1.4673 -2.3109 0.9792
4.5086 -1.3052 -2.3024 0.9793
3.3580 -3.7522 -2.6122 0.9776
3.5429 -3.4417 -2.5624 0.9780
3.7087 -3.1304 -2.5178 0.9784
3.7848 -2.9745 -2.4973 0.9785
3.8564 -2.8186 -2.4780 0.9787
4.0453 -2.3504 -2.4271 0.9791
4.1505 -2.0382 -2.3988 0.9794
4.1971 -1.8821 -2.3863 0.9795
4.2786 -1.5699 -2.3643 0.9797
4.3447 -1.2578 -2.3465 0.9798
3.3168 -3.4553 -2.6233 0.9784
3.4046 -3.3073 -2.5997 0.9786
3.5664 -3.0102 -2.5561 0.9789
3.8954 -2.2633 -2.4675 0.9797
3.9489 -2.1135 -2.4531 0.9798
4.0859 -1.6633 -2.4162 0.9801
4.1583 -1.3629 -2.3967 0.9802
3.1881 -3.3212 -2.6580 0.9790
3.2736 -3.1801 -2.6350 0.9791
3.5039 -2.7538 -2.5729 0.9796
3.7529 -2.1805 -2.5059 0.9802
3.9767 -1.4591 -2.4456 0.9806
4.0103 -1.3144 -2.4366 0.9807
