ply
format ascii 1.0
element vertex 296
property float32 x
property float32 y
property float32 z
property float32 I
end_header
19.8609 -33.2525 6.8295 0.8544
19.5028 -30.1085 6.3254 0.8644
13.1315 -17.3617 3.8384 0.9154
11.2272 -17.3325 3.1636 0.9198
13.1741 -17.4180 3.3456 0.9154
14.2095 -17.4310 3.4452 0.9130
15.3100 -17.4449 3.5557 0.9104
7.9323 -17.3292 2.4818 0.9260
9.5356 -17.3708 2.5805 0.9232
10.3814 -17.3814 2.6364 0.9216
11.2660 -17.3925 2.6985 0.9198
6.4459 -17.3079 1.9833 0.9284
7.1865 -17.3401 2.0156 0.9273
7.9416 -17.3495 2.0489 0.9261
10.3805 -17.3798 2.1738 0.9218
6.4540 -17.3297 1.5654 0.9285
7.1859 -17.3387 1.5888 0.9274
7.9409 -17.3481 1.6151 0.9263
9.5340 -17.3678 1.6772 0.9235
10.1528 -16.9986 1.6761 0.9236
11.9762 -17.0925 1.7668 0.9196
12.9328 -17.0989 1.8149 0.9175
15.0186 -17.1129 1.9274 0.9127
3.0401 -17.2330 1.0851 0.9323
3.7042 -17.2944 1.0968 0.9316
4.3697 -17.3026 1.1066 0.9310
6.4535 -17.3283 1.1466 0.9286
7.1853 -17.3373 1.1638 0.9275
11.9756 -17.0917 1.2941 0.9198
12.9321 -17.0981 1.3294 0.9177
15.0178 -17.1119 1.4118 0.9128
2.4036 -17.2771 0.6878 0.9326
3.0493 -17.2850 0.6921 0.9321
3.6915 -17.2356 0.6950 0.9319
4.3694 -17.3013 0.7036 0.9311
5.7416 -17.3181 0.7194 0.9296
7.0697 -17.0584 0.7281 0.9287
9.3725 -17.0736 0.7680 0.9250
11.9750 -17.0909 0.8229 0.9199
12.9314 -17.0972 0.8453 0.9178
10.4850 -11.9471 0.6268 0.9384
0.5016 -17.2351 0.2913 0.9333
1.1317 -17.2602 0.2922 0.9331
1.7649 -17.2680 0.2932 0.9329
2.4034 -17.2758 0.2946 0.9326
3.7036 -17.2918 0.2987 0.9317
6.3510 -17.0529 0.3074 0.9298
7.8102 -17.0625 0.3170 0.9277
8.5766 -17.0676 0.3227 0.9264
9.3721 -17.0728 0.3290 0.9250
10.1515 -16.9964 0.3344 0.9239
11.9744 -17.0900 0.3525 0.9199
13.8470 -16.9863 0.3702 0.9161
0.5021 -17.2512 -0.0972 0.9333
1.7648 -17.2667 -0.0977 0.9329
3.0043 -17.0301 -0.0974 0.9332
3.6485 -17.0344 -0.0981 0.9327
4.3031 -17.0387 -0.0989 0.9321
6.3507 -17.0522 -0.1024 0.9298
9.3716 -17.0721 -0.1096 0.9251
10.2000 -17.0775 -0.1120 0.9235
11.9738 -17.0892 -0.1175 0.9199
12.0545 -15.9377 -0.1125 0.9232
10.5555 -12.0274 -0.0901 0.9380
0.5020 -17.2499 -0.4859 0.9333
1.7397 -17.0211 -0.4818 0.9338
2.3686 -17.0253 -0.4840 0.9335
4.9461 -16.9604 -0.4975 0.9317
6.3504 -17.0514 -0.5123 0.9298
7.8095 -17.0610 -0.5283 0.9277
8.5758 -17.0660 -0.5378 0.9264
10.4604 -16.1488 -0.5418 0.9259
10.6298 -14.0540 -0.4962 0.9319
10.7013 -13.1275 -0.4769 0.9345
1.7396 -17.0204 -0.8677 0.9338
2.3685 -17.0246 -0.8717 0.9335
3.0041 -17.0287 -0.8769 0.9331
4.3027 -17.0373 -0.8912 0.9320
7.0685 -17.0554 -0.9363 0.9287
7.8092 -17.0603 -0.9515 0.9276
8.9641 -16.3297 -0.9447 0.9281
9.1221 -15.2728 -0.9022 0.9312
9.2634 -14.3009 -0.8641 0.9340
9.3904 -13.4022 -0.8299 0.9366
9.6084 -11.7868 -0.7712 0.9409
0.4951 -17.0116 -1.2478 0.9340
3.6480 -17.0323 -1.2772 0.9325
4.3025 -17.0366 -1.2884 0.9320
6.3499 -17.0500 -1.3340 0.9296
9.1183 -11.1855 -1.0581 0.9438
9.2430 -10.5319 -1.0274 0.9453
1.1156 -17.0150 -1.6370 0.9338
1.7395 -17.0190 -1.6424 0.9336
4.3024 -17.0358 -1.6869 0.9318
4.9454 -16.9583 -1.6959 0.9315
6.7179 -14.6763 -1.5496 0.9372
7.1644 -13.0513 -1.4294 0.9419
7.3572 -12.3179 -1.3775 0.9440
7.5327 -11.6289 -1.3302 0.9458
8.4768 -9.6589 -1.2338 0.9497
2.3682 -17.0225 -2.0415 0.9331
3.6477 -17.0309 -2.0689 0.9322
4.3022 -17.0352 -2.0871 0.9317
5.1931 -15.6637 -1.9602 0.9357
6.2915 -12.5201 -1.6644 0.9451
7.2064 -11.1253 -1.5745 0.9480
7.3830 -10.5371 -1.5283 0.9495
7.5428 -9.9726 -1.4853 0.9509
7.6899 -9.4333 -1.4457 0.9522
0.4950 -17.0095 -2.4111 0.9336
2.3681 -17.0218 -2.4350 0.9329
3.9610 -15.6840 -2.2920 0.9367
4.3316 -14.8533 -2.1922 0.9394
4.9739 -13.3552 -2.0193 0.9441
5.2531 -12.6751 -1.9441 0.9461
5.8252 -11.5923 -1.8382 0.9489
6.2301 -11.3492 -1.8344 0.9490
6.6360 -10.2447 -1.7295 0.9519
6.9748 -9.2217 -1.6382 0.9544
7.1251 -8.7405 -1.5978 0.9555
0.4950 -17.0088 -2.8032 0.9333
1.1155 -17.0129 -2.8087 0.9332
1.7393 -17.0170 -2.8180 0.9330
2.2929 -16.4810 -2.7412 0.9348
4.8421 -11.6835 -2.0835 0.9500
5.5275 -10.9997 -2.0280 0.9513
6.1444 -9.4857 -1.8619 0.9552
6.3203 -9.0205 -1.8145 0.9563
6.4834 -8.5720 -1.7706 0.9574
6.6347 -8.1389 -1.7298 0.9583
6.7750 -7.7198 -1.6920 0.9592
1.5859 -15.5161 -2.9316 0.9385
2.0563 -14.7806 -2.8049 0.9411
2.4857 -14.0902 -2.6893 0.9434
2.8786 -13.4400 -2.5835 0.9456
3.9094 -11.7916 -2.3350 0.9507
4.6256 -11.1610 -2.2709 0.9520
5.7177 -8.8270 -1.9768 0.9581
5.8918 -8.4088 -1.9299 0.9591
0.4457 -15.3149 -3.2386 0.9393
1.4303 -13.9942 -2.9735 0.9441
1.8625 -13.3876 -2.8571 0.9462
2.6269 -12.2646 -2.6513 0.9500
3.0093 -11.9159 -2.5979 0.9510
3.4268 -11.7509 -2.5874 0.9512
4.0191 -10.7916 -2.4342 0.9540
4.2811 -10.3299 -2.3636 0.9553
4.9629 -9.0408 -2.1800 0.9587
5.1598 -8.6389 -2.1270 0.9597
5.5147 -7.8707 -2.0314 0.9615
5.9627 -6.7942 -1.9108 0.9637
0.8698 -13.2657 -3.1244 0.9468
1.7007 -12.2244 -2.9007 0.9506
3.1715 -10.8754 -2.6624 0.9545
3.4607 -10.4383 -2.5846 0.9558
4.2166 -9.2117 -2.3810 0.9592
5.3370 -7.0562 -2.0793 0.9643
0.3663 -12.5857 -3.2600 0.9493
0.8082 -12.3261 -3.1983 0.9502
2.6505 -10.4953 -2.8027 0.9563
3.4777 -9.3379 -2.5800 0.9597
3.9450 -8.6185 -2.4541 0.9616
4.1569 -8.2723 -2.3971 0.9625
4.5420 -7.6045 -2.2934 0.9641
4.7167 -7.2817 -2.2463 0.9648
4.8806 -6.9657 -2.2022 0.9655
1.1517 -11.2675 -3.2064 0.9540
1.5133 -10.8774 -3.1090 0.9554
1.8520 -10.4980 -3.0178 0.9567
2.1693 -10.1284 -2.9323 0.9579
2.4670 -9.7683 -2.8522 0.9590
2.7463 -9.4171 -2.7770 0.9600
3.2548 -8.7393 -2.6400 0.9620
3.4862 -8.4117 -2.5777 0.9629
3.9082 -7.7773 -2.4641 0.9645
4.4512 -6.8718 -2.3178 0.9665
4.9022 -6.0136 -2.1964 0.9683
1.0675 -10.4439 -3.2290 0.9570
1.7240 -9.7726 -3.0522 0.9593
2.0234 -9.4471 -2.9716 0.9604
2.8207 -8.5079 -2.7569 0.9632
3.0563 -8.2064 -2.6935 0.9640
3.2783 -7.9102 -2.6337 0.9648
3.6849 -7.3329 -2.5242 0.9662
4.2112 -6.5012 -2.3825 0.9681
4.6509 -5.7054 -2.2640 0.9697
0.3007 -10.3310 -3.4355 0.9574
1.6111 -9.1327 -3.0826 0.9617
2.6528 -8.0015 -2.8021 0.9651
2.8783 -7.7286 -2.7414 0.9658
3.0914 -7.4593 -2.6840 0.9665
3.6628 -6.6724 -2.5301 0.9684
3.8325 -6.4167 -2.4844 0.9690
4.2867 -5.6676 -2.3621 0.9705
4.5478 -5.1820 -2.2918 0.9714
0.2799 -9.6185 -3.4411 0.9599
0.6132 -9.3516 -3.3514 0.9610
0.9287 -9.0867 -3.2664 0.9619
1.5107 -8.5636 -3.1097 0.9637
1.7789 -8.3055 -3.0375 0.9646
2.0330 -8.0498 -2.9690 0.9653
2.5017 -7.5457 -2.8428 0.9668
2.9223 -7.0512 -2.7295 0.9681
3.6377 -6.0905 -2.5369 0.9703
3.7931 -5.8558 -2.4950 0.9708
3.9401 -5.6234 -2.4555 0.9713
0.5740 -8.7541 -3.3619 0.9631
0.8708 -8.5199 -3.2820 0.9640
1.1528 -8.2863 -3.2061 0.9648
2.1467 -7.3611 -2.9384 0.9677
2.3648 -7.1327 -2.8797 0.9683
3.1320 -6.2327 -2.6731 0.9706
3.2999 -6.0112 -2.6279 0.9711
3.4590 -5.7912 -2.5850 0.9715
4.0152 -4.9255 -2.4352 0.9731
0.5390 -8.2198 -3.3714 0.9650
0.8188 -8.0115 -3.2960 0.9658
1.0855 -7.8026 -3.2242 0.9665
1.3396 -7.5934 -3.1558 0.9672
1.5815 -7.3840 -3.0906 0.9679
2.0313 -6.9654 -2.9695 0.9691
2.6276 -6.3402 -2.8089 0.9708
2.8073 -6.1329 -2.7605 0.9713
2.9781 -5.9264 -2.7145 0.9717
3.5790 -5.1081 -2.5527 0.9734
0.2306 -7.9229 -3.4544 0.9660
1.0246 -7.3647 -3.2406 0.9681
1.4962 -6.9858 -3.1136 0.9693
1.7161 -6.7950 -3.0544 0.9699
1.9258 -6.6037 -2.9979 0.9704
2.1258 -6.4120 -2.9440 0.9710
2.3165 -6.2200 -2.8927 0.9715
2.6713 -5.8358 -2.7971 0.9724
2.8361 -5.6438 -2.7528 0.9728
3.5457 -4.6879 -2.5617 0.9747
0.4788 -7.3027 -3.3876 0.9683
0.9691 -6.9660 -3.2555 0.9695
1.6282 -6.4472 -3.0780 0.9711
1.8290 -6.2717 -3.0240 0.9716
2.2039 -5.9177 -2.9230 0.9725
2.7046 -5.3821 -2.7882 0.9738
2.8561 -5.2029 -2.7474 0.9742
3.2683 -4.6645 -2.6364 0.9752
3.5099 -4.3056 -2.5713 0.9758
3.6214 -4.1264 -2.5413 0.9761
0.2053 -7.0532 -3.4612 0.9691
0.6904 -6.7547 -3.3306 0.9702
0.9184 -6.6011 -3.2692 0.9707
1.3466 -6.2871 -3.1539 0.9718
1.7396 -5.9654 -3.0480 0.9727
1.9237 -5.8022 -2.9985 0.9731
2.4288 -5.3060 -2.8624 0.9743
2.5823 -5.1389 -2.8211 0.9747
2.8685 -4.8027 -2.7440 0.9754
3.0016 -4.6338 -2.7082 0.9757
3.2487 -4.2952 -2.6417 0.9763
3.3631 -4.1255 -2.6109 0.9766
3.4716 -3.9557 -2.5816 0.9768
0.4289 -6.5417 -3.4010 0.9709
0.8717 -6.2656 -3.2818 0.9719
1.2804 -5.9782 -3.1717 0.9728
1.4726 -5.8309 -3.1199 0.9733
1.6569 -5.6817 -3.0703 0.9737
1.8336 -5.5306 -3.0227 0.9741
2.3200 -5.0684 -2.8917 0.9752
2.6099 -4.7544 -2.8137 0.9759
2.8741 -4.4370 -2.7425 0.9765
2.9970 -4.2773 -2.7094 0.9767
3.1139 -4.1171 -2.6779 0.9770
3.2251 -3.9563 -2.6480 0.9773
3.3307 -3.7952 -2.6196 0.9775
0.1842 -6.3272 -3.4669 0.9715
0.8286 -5.9557 -3.2934 0.9729
1.5800 -5.4179 -3.0910 0.9746
1.9126 -5.1355 -3.0015 0.9753
2.0687 -4.9916 -2.9594 0.9757
2.2183 -4.8462 -2.9191 0.9760
2.3615 -4.6994 -2.8806 0.9763
2.4985 -4.5514 -2.8437 0.9766
2.8735 -4.1011 -2.7427 0.9774
3.0952 -3.7969 -2.6830 0.9779
3.1979 -3.6439 -2.6553 0.9781
0.3867 -5.8977 -3.4124 0.9731
0.5913 -5.7848 -3.3573 0.9735
0.7886 -5.6683 -3.3041 0.9739
0.9788 -5.5485 -3.2529 0.9743
1.3385 -5.3000 -3.1560 0.9751
1.5082 -5.1718 -3.1103 0.9754
1.6714 -5.0413 -3.0664 0.9758
1.8281 -4.9087 -3.0242 0.9761
2.3937 -4.3605 -2.8719 0.9773
2.6415 -4.0779 -2.8052 0.9778
2.7571 -3.9350 -2.7740 0.9781
2.8674 -3.7911 -2.7443 0.9783
2.9724 -3.6463 -2.7160 0.9785
3.0723 -3.5008 -2.6891 0.9787
