ply
format ascii 1.0
element vertex 444
property float32 x
property float32 y
property float32 z
property float32 I
end_header
38.8128 -29.7618 8.6242 0.8198
39.1462 -20.1025 7.7595 0.8363
43.2549 -18.4157 8.2895 0.8262
41.7658 -16.0340 7.8885 0.8338
40.4686 -10.7091 7.3813 0.8436
38.6689 -5.8775 6.8967 0.8531
38.3087 -4.4207 6.7997 0.8550
37.8929 -1.6298 6.6877 0.8572
37.8565 1.0951 6.6779 0.8574
14.7145 -17.4374 3.4953 0.9118
22.9739 -21.9244 4.8649 0.8794
39.0999 -29.9820 7.5482 0.8192
38.7906 -27.5888 7.2922 0.8248
37.9035 -23.0471 6.7958 0.8357
36.2236 -18.6017 6.2382 0.8481
35.1328 -16.4737 5.9445 0.8547
33.4283 -12.8332 5.4854 0.8651
32.2032 -9.7731 5.1555 0.8727
30.7555 -4.6747 4.7657 0.8817
30.5570 -3.5262 4.7122 0.8830
30.4148 -2.4058 4.6739 0.8839
30.2904 -0.2130 4.6404 0.8846
30.3061 0.8767 4.6447 0.8845
13.6606 -17.4224 2.8830 0.9146
15.4876 -17.0690 3.0013 0.9112
24.7231 -21.9509 4.3053 0.8751
33.4292 -25.6337 5.4857 0.8437
32.1161 -22.8417 5.1321 0.8530
31.0156 -20.4210 4.8357 0.8609
29.2914 -16.3983 4.3714 0.8734
28.6119 -14.6929 4.1884 0.8783
28.0277 -13.1421 4.0311 0.8826
27.0909 -10.4003 3.7788 0.8895
26.7182 -9.1696 3.6785 0.8923
26.3991 -8.0117 3.5925 0.8947
25.7120 -4.8595 3.4075 0.8998
25.2864 -0.1778 3.2929 0.9030
13.4102 -17.1030 2.3338 0.9163
15.5314 -17.1172 2.4819 0.9112
24.5904 -25.2170 3.7822 0.8679
24.7312 -21.9581 3.5514 0.8754
24.8906 -20.5482 3.4659 0.8782
23.8671 -15.7144 3.0685 0.8914
24.4842 -14.8875 3.0770 0.8911
24.0482 -13.4630 2.9595 0.8951
23.3359 -10.9421 2.7676 0.9015
22.7947 -8.7510 2.6219 0.9064
22.5762 -7.7481 2.5631 0.9084
22.0901 -5.0035 2.4322 0.9129
21.9770 -4.1536 2.4017 0.9140
21.8150 -2.5174 2.3581 0.9154
21.7193 -0.1527 2.3323 0.9163
14.4374 -17.1090 1.8951 0.9141
15.5306 -17.1163 1.9565 0.9114
19.2681 -18.3879 2.2546 0.8986
20.1948 -10.3705 1.9218 0.9129
19.8352 -8.4449 1.8250 0.9171
19.6877 -7.5582 1.7852 0.9188
19.4469 -5.9018 1.7204 0.9217
19.2691 -4.3645 1.6725 0.9238
19.2012 -3.6290 1.6542 0.9246
19.1035 -2.2045 1.6279 0.9257
7.6013 -0.0534 0.6435 0.9699
13.4088 -17.1012 1.3476 0.9166
15.5298 -17.1153 1.4331 0.9115
18.0219 -16.0011 1.4945 0.9079
17.7820 -14.6798 1.4299 0.9117
17.5710 -13.4736 1.3731 0.9151
17.4485 -11.4883 1.2955 0.9197
17.6193 -9.0480 1.2282 0.9237
17.4175 -7.4155 1.1739 0.9269
17.1966 -5.2189 1.1144 0.9305
17.0945 -3.8720 1.0869 0.9322
17.0553 -3.2234 1.0763 0.9328
7.0737 -0.8163 0.4416 0.9719
7.0667 -0.3039 0.4386 0.9721
7.0655 -0.0497 0.4381 0.9721
13.4081 -17.1004 0.8568 0.9167
14.4359 -17.1072 0.8826 0.9143
15.5289 -17.1144 0.9112 0.9116
15.7823 -16.1845 0.8914 0.9135
15.5092 -13.7702 0.8178 0.9203
15.3955 -12.7096 0.7872 0.9232
15.2944 -11.7278 0.7600 0.9257
15.8960 -11.3056 0.7692 0.9249
15.7590 -9.5822 0.7272 0.9288
15.5776 -7.3043 0.6784 0.9334
15.5299 -6.6118 0.6656 0.9347
15.3893 -4.0724 0.6277 0.9383
15.3652 -3.4803 0.6212 0.9389
15.3287 -2.3299 0.6114 0.9398
6.6053 -0.7622 0.2622 0.9737
6.6020 -0.2840 0.2606 0.9739
6.6017 0.1910 0.2604 0.9739
13.7564 -15.1609 0.3458 0.9214
13.6564 -13.0325 0.3189 0.9273
13.9080 -11.4816 0.3047 0.9304
14.1792 -10.8727 0.3018 0.9310
14.1187 -9.2959 0.2855 0.9346
14.0616 -8.5501 0.2780 0.9363
14.0490 -7.2145 0.2668 0.9388
13.9990 -5.3742 0.2533 0.9418
13.9559 -3.1611 0.2417 0.9444
13.9488 -2.6363 0.2398 0.9448
6.1958 -0.7150 0.1053 0.9754
6.1950 -0.2665 0.1047 0.9755
6.1952 -0.0436 0.1047 0.9755
6.1950 0.1792 0.1047 0.9755
12.0635 -15.3855 -0.1101 0.9248
12.0806 -14.3161 -0.1055 0.9278
10.7655 -11.8647 -0.0902 0.9379
12.1096 -12.4182 -0.0977 0.9330
12.7317 -9.0551 -0.0880 0.9394
12.7465 -7.7504 -0.0840 0.9421
12.7585 -6.5518 -0.0807 0.9442
12.7792 -3.8783 -0.0752 0.9480
12.7819 -3.3824 -0.0744 0.9485
12.7863 -2.4166 -0.0733 0.9493
5.8511 -0.8893 -0.0333 0.9766
5.8515 -0.6753 -0.0332 0.9767
5.8520 0.1693 -0.0330 0.9769
10.7322 -12.7181 -0.4686 0.9356
10.7516 -11.8493 -0.4505 0.9380
11.1920 -11.4772 -0.4514 0.9379
11.4992 -9.4931 -0.4199 0.9421
11.5381 -8.8474 -0.4094 0.9435
11.5734 -8.2312 -0.3999 0.9448
11.6346 -7.0744 -0.3834 0.9470
11.6849 -6.0005 -0.3699 0.9488
11.7431 -4.5082 -0.3542 0.9509
11.7720 -3.5726 -0.3464 0.9520
11.7838 -3.1183 -0.3432 0.9524
11.7939 -2.6714 -0.3405 0.9528
11.8024 -2.2306 -0.3382 0.9531
5.5417 -0.8423 -0.1578 0.9778
5.5458 -0.0390 -0.1562 0.9781
5.5457 0.1604 -0.1562 0.9780
9.6987 -11.4934 -0.7627 0.9415
10.1891 -11.2294 -0.7690 0.9411
10.2842 -10.5463 -0.7470 0.9427
10.3612 -9.8878 -0.7263 0.9443
10.4313 -9.2617 -0.7074 0.9457
10.5538 -8.0927 -0.6745 0.9481
10.7403 -6.0128 -0.6242 0.9519
10.8901 -3.7375 -0.5839 0.9549
5.2593 -0.9940 -0.2714 0.9788
5.2630 -0.8000 -0.2700 0.9789
5.2692 -0.2266 -0.2675 0.9791
5.2695 0.1524 -0.2674 0.9791
8.9954 -11.4725 -1.0689 0.9432
9.2929 -10.2418 -1.0140 0.9460
9.3945 -9.6339 -0.9866 0.9475
9.5728 -8.4994 -0.9386 0.9500
9.6509 -7.9672 -0.9176 0.9510
9.7880 -6.9615 -0.8807 0.9530
10.0393 -4.7074 -0.8130 0.9565
10.2084 -2.3123 -0.7675 0.9589
5.0116 -0.7617 -0.3717 0.9799
5.0194 -0.2159 -0.3684 0.9801
5.0197 0.1452 -0.3682 0.9801
8.4096 -9.9657 -1.2519 0.9490
8.5318 -9.4029 -1.2189 0.9503
8.7476 -8.3479 -1.1609 0.9526
9.0104 -6.9092 -1.0901 0.9554
9.0842 -6.4609 -1.0702 0.9562
9.1519 -6.0257 -1.0520 0.9569
9.2139 -5.6025 -1.0353 0.9576
9.3692 -4.3932 -0.9935 0.9593
9.4116 -4.0070 -0.9820 0.9597
9.4497 -3.6278 -0.9718 0.9601
9.4837 -3.2548 -0.9626 0.9605
9.5138 -2.8873 -0.9545 0.9608
4.7864 -0.9046 -0.4677 0.9806
4.7962 -0.5535 -0.4635 0.9808
4.8012 -0.2065 -0.4614 0.9809
4.8020 -0.0338 -0.4610 0.9809
4.8016 0.1389 -0.4612 0.9809
7.6147 -9.7116 -1.4659 0.9515
8.2134 -7.2925 -1.3047 0.9567
8.3069 -6.8577 -1.2795 0.9575
8.6123 -5.2366 -1.1973 0.9602
8.6736 -4.8558 -1.1808 0.9608
8.7296 -4.4829 -1.1657 0.9612
8.7806 -4.1172 -1.1520 0.9617
8.8267 -3.7580 -1.1395 0.9621
8.9053 -3.0563 -1.1184 0.9628
4.5760 -1.0365 -0.5573 0.9813
4.5898 -0.6976 -0.5515 0.9815
4.6004 -0.1979 -0.5470 0.9816
4.6013 -0.0324 -0.5466 0.9816
7.4465 -7.6362 -1.5112 0.9578
7.5600 -7.2146 -1.4807 0.9587
7.7623 -6.4081 -1.4262 0.9602
7.8521 -6.0210 -1.4020 0.9608
8.0114 -5.2748 -1.3591 0.9620
8.0817 -4.9141 -1.3402 0.9625
8.1462 -4.5605 -1.3228 0.9630
8.2052 -4.2136 -1.3069 0.9634
8.3076 -3.5370 -1.2793 0.9642
8.3908 -2.8797 -1.2569 0.9648
8.4255 -2.5570 -1.2476 0.9651
4.5476 -1.0301 -0.6607 0.9813
4.5463 -0.8592 -0.6556 0.9815
4.5443 -0.5244 -0.6481 0.9817
4.5432 0.1314 -0.6440 0.9818
6.5572 -8.3629 -1.7507 0.9578
6.8355 -7.5334 -1.6758 0.9596
7.0754 -6.7521 -1.6112 0.9611
7.1825 -6.3771 -1.5823 0.9618
7.2818 -6.0115 -1.5556 0.9624
7.7374 -3.9733 -1.4329 0.9654
7.7929 -3.6541 -1.4179 0.9657
7.8889 -3.0286 -1.3921 0.9663
7.9296 -2.7214 -1.3811 0.9666
7.9658 -2.4175 -1.3714 0.9668
7.9975 -2.1163 -1.3628 0.9670
4.5780 -1.0369 -0.7733 0.9812
4.5740 -0.5278 -0.7585 0.9815
6.1272 -7.8145 -1.8665 0.9604
6.2712 -7.4316 -1.8277 0.9612
6.8544 -5.6586 -1.6707 0.9645
7.3171 -3.7575 -1.5461 0.9671
7.4720 -2.8685 -1.5044 0.9679
7.5832 -2.0067 -1.4744 0.9686
4.6071 -0.8707 -0.8813 0.9811
4.6055 -0.7000 -0.8756 0.9812
4.6028 0.1332 -0.8655 0.9814
6.0229 -6.6378 -1.8946 0.9640
6.2629 -5.9768 -1.8299 0.9652
6.3709 -5.6565 -1.8009 0.9658
6.5648 -5.0339 -1.7487 0.9667
6.6515 -4.7307 -1.7253 0.9672
6.7318 -4.4323 -1.7037 0.9676
6.8060 -4.1383 -1.6837 0.9680
6.9371 -3.5624 -1.6484 0.9686
6.9945 -3.2797 -1.6330 0.9689
7.0467 -3.0001 -1.6189 0.9692
7.0938 -2.7233 -1.6062 0.9694
7.2067 -1.9071 -1.5758 0.9700
4.6406 -1.0511 -1.0058 0.9807
4.6367 -0.7047 -0.9914 0.9810
5.4085 -6.8978 -2.0600 0.9646
5.5490 -6.5758 -2.0222 0.9653
5.6805 -6.2605 -1.9868 0.9659
5.8035 -5.9514 -1.9537 0.9664
6.0257 -5.3501 -1.8938 0.9674
6.1258 -5.0571 -1.8669 0.9679
6.3054 -4.4846 -1.8185 0.9687
6.3857 -4.2044 -1.7969 0.9691
6.7016 -2.8532 -1.7118 0.9705
6.7490 -2.5910 -1.6990 0.9707
6.7916 -2.3309 -1.6876 0.9709
6.8295 -2.0727 -1.6774 0.9711
6.8628 -1.8161 -1.6684 0.9713
4.6730 -1.0585 -1.1261 0.9805
4.6706 -0.8827 -1.1171 0.9807
4.6686 -0.7096 -1.1098 0.9808
4.6671 -0.5386 -1.1042 0.9809
4.6660 -0.3691 -1.1000 0.9810
4.6653 -0.2007 -1.0975 0.9810
5.2425 -6.2126 -2.1047 0.9670
5.3720 -5.9204 -2.0699 0.9675
5.6068 -5.3506 -2.0066 0.9685
5.7129 -5.0723 -1.9781 0.9689
5.9045 -4.5276 -1.9265 0.9697
5.9905 -4.2606 -1.9033 0.9701
6.0704 -3.9968 -1.8818 0.9704
6.1444 -3.7360 -1.8619 0.9707
6.2755 -3.2226 -1.8266 0.9713
6.3331 -2.9696 -1.8111 0.9715
6.3855 -2.7187 -1.7969 0.9717
6.4757 -2.2224 -1.7727 0.9721
6.5136 -1.9768 -1.7624 0.9723
6.5469 -1.7325 -1.7535 0.9724
4.7062 -1.0660 -1.2494 0.9803
4.7035 -0.8889 -1.2394 0.9804
4.7013 -0.7146 -1.2312 0.9805
4.6976 -0.2020 -1.2174 0.9808
4.6974 0.1359 -1.2167 0.9808
5.0921 -5.6120 -2.1452 0.9690
5.4278 -4.8192 -2.0548 0.9703
5.5257 -4.5617 -2.0285 0.9707
5.7023 -4.0556 -1.9809 0.9713
5.7815 -3.8066 -1.9596 0.9716
5.8549 -3.5600 -1.9398 0.9719
5.9228 -3.3158 -1.9216 0.9722
5.9852 -3.0736 -1.9047 0.9724
6.0425 -2.8333 -1.8893 0.9726
6.2224 -1.8884 -1.8409 0.9733
4.7373 -0.8953 -1.3648 0.9802
4.7329 -0.5462 -1.3488 0.9804
4.7316 -0.3743 -1.3437 0.9805
4.7124 -5.5844 -2.2475 0.9699
4.8369 -5.3307 -2.2140 0.9703
4.9539 -5.0801 -2.1825 0.9707
5.0637 -4.8324 -2.1529 0.9711
5.3533 -4.1049 -2.0749 0.9722
5.6555 -3.1661 -1.9935 0.9732
5.7174 -2.9360 -1.9769 0.9735
5.7742 -2.7075 -1.9616 0.9737
5.9153 -2.0301 -1.9236 0.9742
4.7753 -1.0816 -1.5060 0.9797
4.7720 -0.9019 -1.4937 0.9799
4.7693 -0.7249 -1.4838 0.9800
4.7657 -0.3770 -1.4704 0.9802
4.7648 -0.2049 -1.4669 0.9802
4.7645 0.1378 -1.4661 0.9803
4.3521 -5.5505 -2.3445 0.9707
4.4813 -5.3105 -2.3097 0.9711
4.7175 -4.8378 -2.2461 0.9719
5.1099 -3.9183 -2.1404 0.9732
5.1928 -3.6932 -2.1181 0.9735
5.2699 -3.4698 -2.0974 0.9738
5.3416 -3.2479 -2.0781 0.9740
5.4692 -2.8086 -2.0437 0.9744
5.5767 -2.3743 -2.0147 0.9748
5.7352 -1.5177 -1.9720 0.9753
5.8075 -0.8827 -1.9526 0.9755
5.8230 -0.6720 -1.9484 0.9756
5.8342 -0.4615 -1.9454 0.9756
5.8413 -0.2512 -1.9435 0.9757
5.8442 -0.0411 -1.9427 0.9757
5.8430 0.1690 -1.9430 0.9757
4.1426 -5.2834 -2.4009 0.9719
4.2687 -5.0586 -2.3670 0.9723
4.7043 -4.1768 -2.2497 0.9736
4.8845 -3.7455 -2.2011 0.9742
5.0419 -3.3197 -2.1588 0.9747
5.2939 -2.4823 -2.0909 0.9755
5.3446 -2.2754 -2.0773 0.9756
5.5013 -1.4558 -2.0350 0.9761
5.5295 -1.2525 -2.0275 0.9762
5.5533 -1.0496 -2.0211 0.9763
5.5729 -0.8470 -2.0158 0.9763
5.5882 -0.6449 -2.0116 0.9764
5.6064 -0.2411 -2.0067 0.9764
5.6080 0.1622 -2.0063 0.9764
4.0724 -4.8259 -2.4198 0.9733
4.1884 -4.6160 -2.3886 0.9737
4.4011 -4.2000 -2.3313 0.9743
4.4982 -3.9938 -2.3052 0.9746
4.5894 -3.7887 -2.2806 0.9748
4.7549 -3.3818 -2.2360 0.9753
4.8296 -3.1799 -2.2159 0.9755
5.0776 -2.3809 -2.1491 0.9763
5.1276 -2.1831 -2.1357 0.9764
5.3102 -1.2028 -2.0865 0.9769
5.3337 -1.0081 -2.0802 0.9770
5.3531 -0.8137 -2.0750 0.9771
5.3793 -0.4255 -2.0679 0.9771
5.3863 -0.2317 -2.0660 0.9772
5.3891 -0.0379 -2.0653 0.9772
3.7707 -4.8090 -2.5011 0.9739
3.8903 -4.6102 -2.4689 0.9743
4.0035 -4.4122 -2.4384 0.9746
4.4794 -3.4348 -2.3102 0.9759
4.6312 -3.0492 -2.2694 0.9763
4.7627 -2.6663 -2.2339 0.9767
4.8751 -2.2859 -2.2037 0.9770
4.9690 -1.9076 -2.1784 0.9773
5.0768 -1.3435 -2.1494 0.9776
5.1466 -0.7823 -2.1306 0.9778
5.1725 -0.4092 -2.1236 0.9778
5.1794 -0.2228 -2.1217 0.9778
3.7209 -4.4094 -2.5145 0.9751
4.1269 -3.6641 -2.4052 0.9762
4.2963 -3.2945 -2.3595 0.9767
4.3733 -3.1104 -2.3388 0.9769
4.4451 -2.9267 -2.3195 0.9770
4.5121 -2.7436 -2.3014 0.9772
4.6318 -2.3785 -2.2692 0.9775
4.6847 -2.1966 -2.2550 0.9777
4.8521 -1.4725 -2.2099 0.9781
4.9103 -1.1122 -2.1942 0.9783
4.9332 -0.9324 -2.1880 0.9783
4.9520 -0.7527 -2.1830 0.9784
4.9843 -0.2144 -2.1743 0.9785
4.9871 -0.0351 -2.1735 0.9785
4.9859 0.1442 -2.1738 0.9785
3.4493 -4.3992 -2.5876 0.9757
3.7719 -3.8680 -2.5008 0.9765
3.9587 -3.5148 -2.4505 0.9769
4.3358 -2.6364 -2.3489 0.9779
4.3968 -2.4615 -2.3325 0.9780
4.4533 -2.2869 -2.3173 0.9782
4.5052 -2.1125 -2.3033 0.9783
4.7005 -1.2439 -2.2507 0.9788
4.7271 -1.0707 -2.2435 0.9789
4.7496 -0.8977 -2.2375 0.9789
4.7827 -0.5519 -2.2285 0.9790
4.7933 -0.3792 -2.2257 0.9790
4.8000 -0.2065 -2.2239 0.9790
3.3042 -4.2140 -2.6267 0.9764
3.4145 -4.0463 -2.5970 0.9767
3.6182 -3.7104 -2.5421 0.9772
3.8006 -3.3744 -2.4930 0.9776
3.8840 -3.2064 -2.4706 0.9778
4.2847 -2.2003 -2.3627 0.9788
4.3357 -2.0330 -2.3489 0.9789
4.3824 -1.8658 -2.3364 0.9790
4.4248 -1.6987 -2.3249 0.9791
4.4974 -1.3649 -2.3054 0.9793
4.5536 -1.0314 -2.2902 0.9794
4.5758 -0.8648 -2.2843 0.9795
4.5941 -0.6983 -2.2794 0.9795
4.6084 -0.5318 -2.2755 0.9795
4.6253 -0.1990 -2.2709 0.9796
4.6269 0.1338 -2.2705 0.9796
3.1679 -4.0402 -2.6634 0.9771
3.3770 -3.7218 -2.6071 0.9776
3.4736 -3.5621 -2.5811 0.9778
3.5650 -3.4021 -2.5565 0.9780
3.6514 -3.2420 -2.5332 0.9782
4.0122 -2.4396 -2.4360 0.9791
4.0708 -2.2790 -2.4203 0.9792
4.2625 -1.6364 -2.3686 0.9796
4.3633 -1.1547 -2.3415 0.9799
4.3890 -0.9941 -2.3346 0.9799
4.4428 -0.5127 -2.3201 0.9800
4.4595 -0.1918 -2.3156 0.9801
3.2429 -3.5740 -2.6432 0.9782
3.6650 -2.8104 -2.5295 0.9792
3.7354 -2.6567 -2.5106 0.9793
3.8014 -2.5029 -2.4928 0.9795
3.9735 -2.0405 -2.4465 0.9798
4.0225 -1.8861 -2.4333 0.9799
4.0673 -1.7317 -2.4212 0.9800
4.2071 -1.1133 -2.3836 0.9803
4.2713 -0.6492 -2.3663 0.9805
4.2851 -0.4945 -2.3626 0.9805
4.2952 -0.3398 -2.3598 0.9805
4.3015 -0.1850 -2.3581 0.9806
4.3030 0.1245 -2.3577 0.9806
3.2946 -3.1441 -2.6293 0.9792
3.4545 -2.8518 -2.5862 0.9795
3.5276 -2.7050 -2.5665 0.9797
3.5964 -2.5579 -2.5480 0.9798
3.7773 -2.1147 -2.4993 0.9802
3.8772 -1.8180 -2.4724 0.9804
3.9212 -1.6695 -2.4605 0.9805
4.0297 -1.2230 -2.4313 0.9807
4.0582 -1.0739 -2.4237 0.9808
4.1446 -0.3279 -2.4004 0.9810
4.1534 -0.0292 -2.3980 0.9810
