ply
format ascii 1.0
element vertex 596
property float32 x
property float32 y
property float32 z
property float32 I
end_header
19.2440 -33.7449 6.8497 0.8540
20.1235 -32.5460 6.7471 0.8561
19.9608 -29.8593 6.3331 0.8643
21.2570 -29.4776 6.4082 0.8628
14.5609 -17.4372 4.0057 0.9119
22.7625 -22.0085 5.5829 0.8793
39.0422 -20.5545 7.7800 0.8359
42.2145 -16.7687 8.0093 0.8315
10.7508 -17.3876 3.1317 0.9206
11.6309 -17.3986 3.2061 0.9188
13.5288 -17.4224 3.3792 0.9146
15.5937 -17.3811 3.5772 0.9098
39.6096 -26.5830 7.3078 0.8245
37.8979 -23.5278 6.8336 0.8348
36.5682 -19.2520 6.3310 0.8460
33.6659 -13.3730 5.5494 0.8636
8.3021 -17.3063 2.4995 0.9255
9.9088 -17.3755 2.6047 0.9225
12.5537 -17.4086 2.7949 0.9171
13.5275 -17.4208 2.8722 0.9149
14.2876 -17.1098 2.9027 0.9140
15.3568 -17.1170 2.9946 0.9114
24.5918 -22.1437 4.3093 0.8750
24.5801 -20.6015 4.1764 0.8786
29.4940 -16.8908 4.4260 0.8719
28.7941 -15.1592 4.2375 0.8770
27.6719 -12.1460 3.9353 0.8852
6.1250 -17.2711 1.9678 0.9289
6.8499 -17.3360 2.0016 0.9278
7.5756 -17.3450 2.0324 0.9267
9.1013 -17.3639 2.1052 0.9242
9.8714 -17.3099 2.1398 0.9230
11.6287 -17.3954 2.2469 0.9193
12.3281 -17.0957 2.2633 0.9187
14.2868 -17.1089 2.3935 0.9142
15.3559 -17.1160 2.4692 0.9116
24.6144 -23.7991 3.6766 0.8713
24.7370 -22.2745 3.5745 0.8747
25.2258 -19.6618 3.4344 0.8793
23.9960 -16.1044 3.1032 0.8902
23.5039 -14.5917 2.9707 0.8947
24.1606 -13.8364 2.9897 0.8940
23.7703 -12.5143 2.8846 0.8976
23.4295 -11.2918 2.7928 0.9007
22.8719 -9.0853 2.6427 0.9057
4.7869 -17.3091 1.5203 0.9304
5.4577 -17.3174 1.5370 0.9297
6.1444 -17.3259 1.5562 0.9289
6.8493 -17.3346 1.5778 0.9279
8.3244 -17.3528 1.6292 0.9256
9.1006 -17.3624 1.6594 0.9243
10.5118 -17.0010 1.6921 0.9229
12.3275 -17.0949 1.7842 0.9189
13.2794 -17.1012 1.8329 0.9168
14.2861 -17.1080 1.8868 0.9144
15.3551 -17.1151 1.9465 0.9118
21.6163 -19.4644 2.4624 0.8898
21.1454 -17.7228 2.3356 0.8952
20.7375 -16.1635 2.2257 0.8998
20.3820 -14.7542 2.1300 0.9039
20.0708 -13.4700 2.0462 0.9075
19.8849 -8.7280 1.8383 0.9165
2.8391 -17.2279 1.0827 0.9324
4.1294 -17.2996 1.1029 0.9312
4.7865 -17.3077 1.1135 0.9306
6.8327 -17.2926 1.1530 0.9282
8.1870 -17.0665 1.1738 0.9269
12.3269 -17.0940 1.3069 0.9190
17.2183 -17.8730 1.5390 0.9053
18.0723 -16.2733 1.5081 0.9071
17.8292 -14.9434 1.4426 0.9110
17.6152 -13.7298 1.3849 0.9144
17.4261 -12.6145 1.3340 0.9174
17.7752 -10.1796 1.2702 0.9212
17.4455 -7.6573 1.1814 0.9265
2.2204 -17.2748 0.6868 0.9327
3.4837 -17.2904 0.6955 0.9318
4.7862 -17.3064 0.7080 0.9306
5.4569 -17.3146 0.7158 0.9299
6.0472 -17.0516 0.7134 0.9301
7.4516 -17.0609 0.7341 0.9282
8.1867 -17.0658 0.7463 0.9270
8.9477 -17.0708 0.7600 0.9257
9.7381 -17.0760 0.7751 0.9243
10.5108 -16.9994 0.7881 0.9231
11.4227 -17.0872 0.8105 0.9210
13.2780 -17.0995 0.8537 0.9170
14.2845 -17.1062 0.8788 0.9147
15.4180 -12.9224 0.7933 0.9226
15.8473 -11.4717 0.7714 0.9247
15.6477 -8.2380 0.6973 0.9317
15.5440 -6.8227 0.6694 0.9343
1.5988 -17.2659 0.2929 0.9330
2.2110 -17.2021 0.2930 0.9330
4.6904 -16.9602 0.2972 0.9320
5.3724 -17.0464 0.3019 0.9310
6.7390 -17.0554 0.3098 0.9293
7.4512 -17.0601 0.3145 0.9282
8.1863 -17.0650 0.3197 0.9271
9.7376 -17.0753 0.3320 0.9244
12.3257 -17.0923 0.3560 0.9192
13.7653 -15.3430 0.3482 0.9208
13.6646 -13.2119 0.3211 0.9268
13.7098 -11.4907 0.3022 0.9309
14.1545 -10.2462 0.2952 0.9325
14.0758 -8.0610 0.2740 0.9372
14.0357 -6.7645 0.2632 0.9396
14.0187 -6.1532 0.2586 0.9406
-0.8563 -17.2345 -0.0972 0.9333
-0.2440 -17.2420 -0.0971 0.9333
0.3683 -17.2495 -0.0971 0.9333
0.9820 -17.2571 -0.0973 0.9332
1.5987 -17.2646 -0.0976 0.9330
2.2200 -17.2723 -0.0980 0.9327
2.8476 -17.2799 -0.0986 0.9323
3.4319 -17.0329 -0.0978 0.9329
4.0668 -17.0371 -0.0986 0.9323
5.3721 -17.0457 -0.1006 0.9310
6.7387 -17.0547 -0.1032 0.9293
7.4509 -17.0594 -0.1048 0.9282
9.7372 -17.0745 -0.1107 0.9244
10.5099 -16.9978 -0.1125 0.9232
11.4216 -17.0855 -0.1157 0.9211
12.0611 -15.5323 -0.1107 0.9244
12.0783 -14.4641 -0.1061 0.9274
12.6760 -11.4141 -0.0960 0.9340
12.7212 -9.9153 -0.0908 0.9375
12.7376 -8.5486 -0.0864 0.9405
12.7447 -7.9122 -0.0845 0.9418
12.7512 -7.3024 -0.0827 0.9429
12.7622 -6.1507 -0.0798 0.9449
-0.8527 -17.1633 -0.4839 0.9335
0.3683 -17.2483 -0.4858 0.9333
0.9819 -17.2558 -0.4867 0.9332
2.1882 -17.0241 -0.4833 0.9336
3.4317 -17.0323 -0.4892 0.9328
4.0666 -17.0364 -0.4932 0.9323
4.6901 -16.9588 -0.4954 0.9320
6.0464 -17.0494 -0.5094 0.9302
10.4037 -16.8261 -0.5570 0.9239
10.4973 -15.7028 -0.5318 0.9272
10.5808 -14.6726 -0.5094 0.9302
10.6556 -13.7223 -0.4892 0.9328
10.7230 -12.8411 -0.4711 0.9352
11.4476 -10.3080 -0.4338 0.9402
11.5298 -8.9867 -0.4116 0.9432
11.5654 -8.3721 -0.4020 0.9445
11.6541 -6.6741 -0.3782 0.9477
11.7200 -5.1442 -0.3604 0.9501
11.7377 -4.6626 -0.3556 0.9507
0.9682 -17.0154 -0.8643 0.9340
2.8060 -17.0275 -0.8752 0.9332
3.4316 -17.0316 -0.8811 0.9328
4.6898 -16.9580 -0.8923 0.9320
5.3459 -16.9623 -0.9019 0.9312
8.8729 -16.9281 -0.9693 0.9263
9.0368 -15.8464 -0.9251 0.9295
9.4346 -13.0832 -0.8180 0.9374
9.5422 -12.2885 -0.7890 0.9396
9.6399 -11.5441 -0.7627 0.9415
10.1698 -11.3355 -0.7723 0.9408
10.2705 -10.6610 -0.7507 0.9424
10.5951 -7.6697 -0.6633 0.9490
10.6442 -7.1436 -0.6501 0.9500
10.6890 -6.6359 -0.6380 0.9509
-0.2406 -17.0067 -1.2471 0.9341
0.3632 -17.0107 -1.2475 0.9340
1.5759 -17.0187 -1.2532 0.9337
2.1880 -17.0227 -1.2584 0.9335
3.4314 -17.0308 -1.2738 0.9327
4.6897 -16.9573 -1.2900 0.9319
5.3457 -16.9616 -1.3040 0.9312
6.0459 -17.0480 -1.3263 0.9300
7.6540 -15.9553 -1.2975 0.9315
7.8615 -14.9985 -1.2416 0.9343
8.0486 -14.1134 -1.1913 0.9369
8.2177 -13.2906 -1.1457 0.9393
8.3711 -12.5222 -1.1044 0.9414
8.5105 -11.8017 -1.0669 0.9433
8.9122 -11.4772 -1.0654 0.9434
9.2762 -10.3394 -1.0185 0.9458
9.4713 -9.1575 -0.9660 0.9485
9.6353 -8.0757 -0.9218 0.9508
9.7733 -7.0747 -0.8846 0.9528
9.8337 -6.5997 -0.8684 0.9536
9.9396 -5.6923 -0.8398 0.9551
9.9857 -5.2572 -0.8274 0.9557
10.0275 -4.8328 -0.8162 0.9563
10.0654 -4.4180 -0.8060 0.9569
10.0995 -4.0118 -0.7968 0.9574
-0.2406 -17.0060 -1.6328 0.9339
0.3632 -17.0100 -1.6334 0.9339
0.9682 -17.0140 -1.6361 0.9338
1.5759 -17.0180 -1.6408 0.9336
4.0661 -17.0343 -1.6813 0.9320
4.7121 -17.0386 -1.6972 0.9314
5.3454 -16.9609 -1.7073 0.9310
6.0351 -17.0176 -1.7335 0.9300
6.8369 -14.2520 -1.5176 0.9385
8.1046 -11.2389 -1.3303 0.9458
8.2581 -10.6348 -1.2927 0.9473
8.3911 -10.0486 -1.2568 0.9488
8.5134 -9.4892 -1.2239 0.9501
8.7294 -8.4403 -1.1657 0.9524
8.9933 -7.0097 -1.0947 0.9552
9.1358 -6.1313 -1.0563 0.9568
9.2558 -5.3007 -1.0240 0.9580
9.3990 -4.1255 -0.9854 0.9596
9.4379 -3.7490 -0.9749 0.9600
-1.5809 -31.8198 -3.7844 0.8796
-0.2406 -17.0053 -2.0202 0.9338
0.9681 -17.0133 -2.0242 0.9337
1.5758 -17.0173 -2.0301 0.9335
2.8057 -17.0254 -2.0496 0.9329
5.6683 -14.3456 -1.8322 0.9398
5.9333 -13.5848 -1.7609 0.9420
6.5976 -11.5691 -1.5820 0.9478
7.2801 -10.8903 -1.5560 0.9486
7.5956 -9.7816 -1.4711 0.9513
7.8639 -8.7653 -1.3988 0.9537
8.1944 -7.3786 -1.3098 0.9566
8.4545 -6.1201 -1.2398 0.9588
8.7143 -4.5878 -1.1698 0.9611
8.7660 -4.2248 -1.1559 0.9616
8.8129 -3.8683 -1.1432 0.9620
-1.2991 -26.1406 -3.7085 0.8997
0.3631 -17.0086 -2.4105 0.9336
0.9681 -17.0126 -2.4144 0.9335
2.1877 -17.0206 -2.4315 0.9330
3.8186 -15.9975 -2.3303 0.9357
4.1939 -15.1645 -2.2293 0.9384
5.1288 -12.9803 -1.9775 0.9452
5.3886 -12.3376 -1.9076 0.9471
6.5276 -10.5572 -1.7587 0.9511
7.0286 -9.0515 -1.6237 0.9548
7.3038 -8.1409 -1.5497 0.9568
7.7428 -6.4895 -1.4314 0.9600
7.8330 -6.1053 -1.4071 0.9607
7.9163 -5.7305 -1.3847 0.9613
7.9933 -5.3645 -1.3640 0.9619
8.1293 -4.6556 -1.3273 0.9629
8.1890 -4.3113 -1.3113 0.9633
8.2435 -3.9730 -1.2966 0.9637
8.3379 -3.3121 -1.2712 0.9644
-1.1010 -22.1602 -3.6551 0.9140
0.3631 -17.0079 -2.8025 0.9334
0.9680 -17.0119 -2.8071 0.9333
2.6190 -15.8923 -2.6534 0.9368
3.0441 -15.1082 -2.5389 0.9394
3.4313 -14.3750 -2.4346 0.9418
3.7851 -13.6867 -2.3394 0.9441
4.6805 -11.8456 -2.0982 0.9497
5.0876 -11.6485 -2.0940 0.9498
5.8429 -10.2458 -1.9430 0.9533
6.6814 -8.0012 -1.7172 0.9586
6.8152 -7.5963 -1.6812 0.9595
7.1623 -6.4493 -1.5878 0.9617
7.2619 -6.0865 -1.5609 0.9623
7.3542 -5.7321 -1.5361 0.9629
7.4398 -5.3855 -1.5130 0.9635
7.5189 -5.0461 -1.4917 0.9640
7.6590 -4.3862 -1.4540 0.9649
7.7207 -4.0647 -1.4374 0.9652
7.7770 -3.7481 -1.4222 0.9656
7.8283 -3.4361 -1.4084 0.9659
7.8748 -3.1281 -1.3959 0.9662
0.9388 -16.4973 -3.1059 0.9350
1.9262 -14.9861 -2.8400 0.9404
2.3566 -14.2999 -2.7241 0.9427
2.7509 -13.6533 -2.6179 0.9449
3.7544 -11.9125 -2.3476 0.9504
4.5008 -11.3906 -2.3021 0.9514
5.2161 -9.9515 -2.1119 0.9553
5.4207 -9.5054 -2.0567 0.9564
5.9537 -8.2561 -1.9132 0.9594
6.2511 -7.4859 -1.8331 0.9611
6.3849 -7.1167 -1.7971 0.9618
6.7337 -6.0634 -1.7032 0.9638
6.9277 -5.3997 -1.6509 0.9649
7.0143 -5.0776 -1.6276 0.9654
7.0946 -4.7614 -1.6060 0.9658
7.1688 -4.4506 -1.5860 0.9662
7.2372 -4.1446 -1.5676 0.9666
7.4100 -3.2525 -1.5210 0.9676
7.4575 -2.9623 -1.5083 0.9679
-0.2289 -16.1793 -3.4203 0.9360
0.3302 -15.4651 -3.2698 0.9387
1.3111 -14.1584 -3.0056 0.9435
1.7426 -13.5577 -2.8894 0.9456
2.1403 -12.9875 -2.7823 0.9476
2.8523 -11.9493 -2.5968 0.9510
3.2814 -11.8653 -2.6022 0.9509
4.1640 -10.5383 -2.3952 0.9547
4.8530 -9.2587 -2.2096 0.9582
5.0525 -8.8598 -2.1559 0.9592
5.5757 -7.7320 -2.0150 0.9618
6.0027 -6.6907 -1.9000 0.9639
6.1267 -6.3597 -1.8666 0.9645
6.2425 -6.0357 -1.8355 0.9651
6.3505 -5.7183 -1.8064 0.9657
6.5448 -5.1012 -1.7540 0.9666
6.6319 -4.8007 -1.7306 0.9671
6.7126 -4.5050 -1.7088 0.9675
6.9198 -3.6431 -1.6530 0.9685
-0.7519 -15.1337 -3.5611 0.9396
0.7623 -13.3958 -3.1534 0.9464
1.1918 -12.8702 -3.0377 0.9483
1.9920 -12.0876 -2.8792 0.9509
2.7439 -11.4951 -2.7775 0.9526
3.0551 -11.0471 -2.6938 0.9540
3.6162 -10.1967 -2.5427 0.9565
3.8692 -9.7923 -2.4746 0.9577
4.5343 -8.6507 -2.2955 0.9607
4.9100 -7.9411 -2.1943 0.9624
5.2399 -7.2663 -2.1054 0.9639
5.6606 -6.3094 -1.9922 0.9658
5.8981 -5.7028 -1.9282 0.9669
6.0054 -5.4076 -1.8993 0.9673
6.1056 -5.1174 -1.8723 0.9678
6.3666 -4.2728 -1.8020 0.9690
6.4414 -3.9989 -1.7819 0.9693
6.5105 -3.7285 -1.7633 0.9696
6.6326 -3.1966 -1.7304 0.9702
6.6859 -2.9346 -1.7160 0.9704
6.7343 -2.6750 -1.7030 0.9707
1.5274 -11.8834 -3.1021 0.9517
2.5400 -10.6408 -2.8325 0.9558
2.8344 -10.2489 -2.7532 0.9570
3.3685 -9.4984 -2.6094 0.9592
3.8382 -8.7879 -2.4829 0.9612
4.4403 -7.7862 -2.3208 0.9636
4.6171 -7.4673 -2.2731 0.9644
5.0857 -6.5494 -2.1470 0.9663
5.5867 -5.4016 -2.0120 0.9684
5.6928 -5.1261 -1.9835 0.9688
5.7921 -4.8546 -1.9567 0.9693
5.9710 -4.3224 -1.9086 0.9700
6.1947 -3.5476 -1.8483 0.9709
6.2582 -3.2948 -1.8312 0.9712
6.3166 -3.0443 -1.8155 0.9714
6.3699 -2.7959 -1.8011 0.9717
-0.6293 -12.6662 -3.5901 0.9486
-0.1775 -12.5439 -3.5515 0.9492
0.2596 -12.1607 -3.4434 0.9507
1.4123 -10.9879 -3.1362 0.9550
2.3623 -9.8965 -2.8803 0.9586
2.6413 -9.5507 -2.8052 0.9596
3.1503 -8.8830 -2.6682 0.9616
3.3824 -8.5602 -2.6057 0.9625
4.1826 -7.3343 -2.3902 0.9655
4.5160 -6.7554 -2.3004 0.9668
4.8114 -6.1962 -2.2208 0.9679
5.0728 -5.6542 -2.1504 0.9689
5.4080 -4.8697 -2.0602 0.9702
5.5060 -4.6148 -2.0338 0.9706
5.5976 -4.3629 -2.0091 0.9709
5.6830 -4.1139 -1.9861 0.9713
5.8365 -3.6234 -1.9448 0.9718
5.9049 -3.3817 -1.9264 0.9721
5.9681 -3.1420 -1.9094 0.9724
6.0791 -2.6683 -1.8794 0.9728
6.1274 -2.4340 -1.8665 0.9730
0.2396 -11.2206 -3.4520 0.9541
1.3112 -10.2010 -3.1634 0.9579
1.6273 -9.8749 -3.0783 0.9590
1.9252 -9.5553 -2.9980 0.9600
2.4708 -8.9342 -2.8511 0.9620
2.7206 -8.6324 -2.7839 0.9628
3.1787 -8.0447 -2.6605 0.9644
3.3886 -7.7584 -2.6040 0.9652
3.5867 -7.4768 -2.5506 0.9659
3.7738 -7.1998 -2.5002 0.9666
4.1170 -6.6584 -2.4078 0.9678
4.4224 -6.1327 -2.3256 0.9689
4.5622 -5.8752 -2.2879 0.9693
4.6939 -5.6211 -2.2525 0.9698
4.8179 -5.3702 -2.2191 0.9703
4.9346 -5.1223 -2.1876 0.9707
5.1472 -4.6348 -2.1304 0.9714
5.3340 -4.1575 -2.0801 0.9721
5.4183 -3.9223 -2.0574 0.9724
5.6378 -3.2287 -1.9983 0.9732
5.7004 -3.0011 -1.9814 0.9734
5.7579 -2.7750 -1.9659 0.9736
5.8105 -2.5504 -1.9518 0.9738
5.8584 -2.3271 -1.9389 0.9740
0.5746 -10.0971 -3.3618 0.9583
0.9076 -9.8017 -3.2721 0.9594
1.2224 -9.5104 -3.1873 0.9604
1.8013 -8.9400 -3.0314 0.9623
2.3191 -8.3855 -2.8920 0.9640
2.5572 -8.1139 -2.8279 0.9648
3.3884 -7.0633 -2.6040 0.9675
3.7398 -6.5578 -2.5094 0.9687
3.9013 -6.3097 -2.4659 0.9692
4.0540 -6.0644 -2.4248 0.9697
4.1983 -5.8219 -2.3859 0.9702
4.4632 -5.3448 -2.3146 0.9711
5.0021 -4.1924 -2.1695 0.9729
5.0909 -3.9680 -2.1456 0.9732
5.4524 -2.8705 -2.0482 0.9744
5.5093 -2.6552 -2.0329 0.9746
5.5614 -2.4410 -2.0189 0.9747
-0.5069 -10.2025 -3.6530 0.9575
0.5357 -9.4148 -3.3722 0.9607
0.8478 -9.1558 -3.2882 0.9617
1.4245 -8.6441 -3.1329 0.9635
2.4102 -7.6476 -2.8674 0.9665
2.6258 -7.4042 -2.8094 0.9672
2.8304 -7.1632 -2.7543 0.9678
3.0243 -6.9244 -2.7021 0.9684
3.5478 -6.2213 -2.5611 0.9700
4.2510 -5.0907 -2.3717 0.9722
4.3695 -4.8703 -2.3398 0.9726
4.8658 -3.7926 -2.2062 0.9741
4.9475 -3.5815 -2.1842 0.9744
5.0238 -3.3716 -2.1636 0.9746
5.1608 -2.9555 -2.1267 0.9751
5.3294 -2.3392 -2.0813 0.9756
5.3763 -2.1356 -2.0687 0.9757
0.5013 -8.8097 -3.3815 0.9629
0.7946 -8.5811 -3.3025 0.9638
1.0737 -8.3531 -3.2274 0.9646
1.3391 -8.1257 -3.1559 0.9653
1.5916 -7.8991 -3.0879 0.9661
1.8317 -7.6735 -3.0232 0.9668
3.2121 -6.1283 -2.6515 0.9708
3.3720 -5.9128 -2.6085 0.9713
3.5236 -5.6988 -2.5676 0.9717
3.8038 -5.2748 -2.4922 0.9725
3.9329 -5.0648 -2.4574 0.9729
4.0552 -4.8562 -2.4245 0.9733
4.1707 -4.6488 -2.3934 0.9736
4.2798 -4.4426 -2.3640 0.9739
4.3828 -4.2376 -2.3362 0.9742
4.4798 -4.0338 -2.3101 0.9745
4.5710 -3.8311 -2.2856 0.9748
4.7368 -3.4289 -2.2409 0.9753
4.8118 -3.2293 -2.2207 0.9755
4.9465 -2.8328 -2.1844 0.9759
5.0619 -2.4396 -2.1534 0.9762
5.1127 -2.2441 -2.1397 0.9764
5.1589 -2.0493 -2.1273 0.9765
-0.4407 -8.8711 -3.6352 0.9623
-0.1227 -8.6719 -3.5495 0.9632
0.4705 -8.2690 -3.3898 0.9648
1.2621 -7.6583 -3.1766 0.9670
1.5019 -7.4541 -3.1121 0.9677
2.1562 -6.8416 -2.9358 0.9695
2.3541 -6.6380 -2.8826 0.9700
2.5426 -6.4350 -2.8318 0.9705
2.8929 -6.0306 -2.7375 0.9715
3.0555 -5.8294 -2.6937 0.9720
3.3570 -5.4292 -2.6125 0.9728
3.4965 -5.2304 -2.5749 0.9732
3.6289 -5.0323 -2.5393 0.9735
3.7545 -4.8351 -2.5054 0.9739
4.1934 -4.0545 -2.3873 0.9751
4.2882 -3.8613 -2.3617 0.9754
4.3775 -3.6690 -2.3377 0.9756
4.4614 -3.4774 -2.3151 0.9758
4.6136 -3.0964 -2.2741 0.9763
4.6823 -2.9069 -2.2556 0.9765
4.8596 -2.3421 -2.2078 0.9770
4.9096 -2.1550 -2.1944 0.9771
4.9551 -1.9683 -2.1821 0.9772
-0.4131 -8.3137 -3.6277 0.9643
-0.1152 -8.1391 -3.5475 0.9651
0.1700 -7.9619 -3.4707 0.9658
0.4429 -7.7825 -3.3972 0.9666
0.9535 -7.4185 -3.2597 0.9679
1.1922 -7.2345 -3.1954 0.9685
1.4204 -7.0495 -3.1340 0.9691
1.6384 -6.8636 -3.0753 0.9697
1.8466 -6.6771 -3.0192 0.9702
2.0455 -6.4902 -2.9657 0.9707
2.2353 -6.3030 -2.9146 0.9712
2.5892 -5.9281 -2.8192 0.9722
2.7539 -5.7407 -2.7749 0.9726
2.9109 -5.5535 -2.7326 0.9730
3.0604 -5.3665 -2.6924 0.9734
3.3380 -4.9933 -2.6176 0.9741
3.4666 -4.8072 -2.5830 0.9745
3.8144 -4.2516 -2.4893 0.9754
3.9183 -4.0673 -2.4613 0.9757
4.0165 -3.8835 -2.4349 0.9759
4.1092 -3.7002 -2.4099 0.9762
4.1966 -3.5173 -2.3864 0.9764
4.3558 -3.1531 -2.3435 0.9768
4.4280 -2.9717 -2.3241 0.9770
4.4953 -2.7908 -2.3060 0.9772
4.5579 -2.6103 -2.2891 0.9773
4.6159 -2.4301 -2.2735 0.9775
4.6695 -2.2505 -2.2590 0.9776
-0.3882 -7.8131 -3.6210 0.9661
-0.1084 -7.6592 -3.5457 0.9668
0.1602 -7.5020 -3.4734 0.9675
0.9016 -7.0147 -3.2737 0.9693
1.1285 -6.8480 -3.2126 0.9699
1.3459 -6.6797 -3.1541 0.9704
1.7531 -6.3391 -3.0444 0.9714
1.9437 -6.1672 -2.9931 0.9719
2.1259 -5.9944 -2.9440 0.9724
2.4664 -5.6470 -2.8523 0.9732
2.9214 -5.1229 -2.7298 0.9743
3.3154 -4.5975 -2.6237 0.9753
3.4341 -4.4224 -2.5917 0.9756
3.7551 -3.8979 -2.5053 0.9764
3.8509 -3.7234 -2.4795 0.9767
4.1072 -3.2013 -2.4105 0.9773
4.2534 -2.8546 -2.3711 0.9777
4.3194 -2.6816 -2.3533 0.9778
4.3808 -2.5088 -2.3368 0.9780
4.5386 -1.9921 -2.2943 0.9784
4.5826 -1.8203 -2.2824 0.9785
0.1513 -7.0842 -3.4758 0.9689
0.6292 -6.7944 -3.3471 0.9701
0.8541 -6.6453 -3.2865 0.9706
1.0702 -6.4938 -3.2283 0.9711
1.4763 -6.1847 -3.1189 0.9721
1.6669 -6.0275 -3.0676 0.9725
2.0246 -5.7090 -2.9713 0.9734
2.1922 -5.5480 -2.9262 0.9738
2.5057 -5.2233 -2.8417 0.9745
2.6522 -5.0599 -2.8023 0.9749
2.7920 -4.8959 -2.7646 0.9752
2.9255 -4.7315 -2.7287 0.9755
3.1740 -4.4014 -2.6618 0.9761
3.2893 -4.2360 -2.6307 0.9764
3.3990 -4.0703 -2.6012 0.9767
3.6018 -3.7388 -2.5466 0.9771
3.6954 -3.5729 -2.5214 0.9774
3.7837 -3.4071 -2.4976 0.9776
4.2136 -2.4131 -2.3818 0.9786
4.2694 -2.2477 -2.3668 0.9787
4.3210 -2.0825 -2.3529 0.9789
4.4116 -1.7524 -2.3285 0.9791
-0.3452 -6.9490 -3.6095 0.9691
-0.0966 -6.8279 -3.5425 0.9697
0.3741 -6.5736 -3.4158 0.9708
0.5965 -6.4412 -3.3559 0.9713
1.0164 -6.1676 -3.2428 0.9722
1.7625 -5.5924 -3.0419 0.9739
2.0919 -5.2942 -2.9532 0.9747
2.2464 -5.1432 -2.9116 0.9750
2.3943 -4.9910 -2.8717 0.9754
3.1534 -4.0610 -2.6673 0.9771
3.2600 -3.9040 -2.6386 0.9773
3.3614 -3.7467 -2.6113 0.9776
3.4576 -3.5891 -2.5854 0.9778
3.9331 -2.6396 -2.4573 0.9789
4.1101 -2.1638 -2.4097 0.9793
4.2495 -1.6880 -2.3721 0.9796
-0.0915 -6.4648 -3.5411 0.9709
0.1356 -6.3523 -3.4800 0.9714
0.3548 -6.2359 -3.4209 0.9719
0.7702 -5.9924 -3.3091 0.9728
1.3380 -5.6052 -3.1562 0.9741
1.5131 -5.4711 -3.1090 0.9744
1.6814 -5.3351 -3.0637 0.9748
1.9983 -5.0574 -2.9784 0.9755
2.1472 -4.9162 -2.9383 0.9758
2.2900 -4.7737 -2.8998 0.9761
2.6828 -4.3390 -2.7940 0.9770
2.9166 -4.0445 -2.7311 0.9775
3.1291 -3.7472 -2.6738 0.9780
3.2278 -3.5977 -2.6473 0.9782
3.3214 -3.4478 -2.6221 0.9784
3.4103 -3.2973 -2.5981 0.9786
3.5739 -2.9955 -2.5541 0.9790
3.7194 -2.6925 -2.5149 0.9793
3.7856 -2.5406 -2.4971 0.9794
3.9053 -2.2365 -2.4648 0.9797
3.9589 -2.0842 -2.4504 0.9798
4.0084 -1.9319 -2.4371 0.9799
-0.0867 -6.1306 -3.5399 0.9721
0.3371 -5.9240 -3.4257 0.9730
0.7329 -5.7020 -3.3191 0.9738
1.1015 -5.4671 -3.2199 0.9746
1.2760 -5.3454 -3.1729 0.9749
1.6057 -5.0948 -3.0841 0.9756
1.7612 -4.9662 -3.0422 0.9760
2.0543 -4.7035 -2.9633 0.9766
2.4510 -4.2978 -2.8565 0.9774
2.6881 -4.0212 -2.7926 0.9779
2.9047 -3.7406 -2.7343 0.9784
3.0055 -3.5991 -2.7072 0.9786
3.1014 -3.4569 -2.6813 0.9788
3.2792 -3.1706 -2.6334 0.9792
3.3612 -3.0266 -2.6114 0.9793
3.4387 -2.8821 -2.5905 0.9795
3.6455 -2.4466 -2.5348 0.9799
3.7061 -2.3008 -2.5185 0.9801
3.8635 -1.8620 -2.4761 0.9804
3.9080 -1.7154 -2.4641 0.9805
3.9488 -1.5686 -2.4531 0.9806
