ply
format ascii 1.0
element vertex 465
property float32 x
property float32 y
property float32 z
property float32 I
end_header
43.4543 -18.7235 8.3432 0.8252
41.9260 -16.2981 7.9316 0.8330
41.4049 -12.7443 7.6388 0.8387
40.5552 -10.8978 7.4047 0.8432
39.1939 -7.5520 7.0381 0.8503
38.7089 -6.0194 6.9075 0.8529
37.9027 -1.7457 6.6904 0.8572
37.8300 -0.3762 6.6708 0.8576
37.8510 0.9895 6.6764 0.8575
22.8958 -22.0974 4.8746 0.8792
39.3900 -26.2170 7.2487 0.8257
37.6720 -21.3243 6.6316 0.8393
36.3768 -18.8920 6.2794 0.8472
35.2584 -16.7249 5.9783 0.8539
33.5132 -13.0278 5.5083 0.8646
32.8345 -11.4185 5.3256 0.8688
32.2603 -9.9297 5.1709 0.8723
31.7769 -8.5389 5.0407 0.8753
31.3739 -7.2280 4.9322 0.8778
30.4251 -2.5038 4.6767 0.8838
30.3318 -1.3970 4.6516 0.8844
30.2914 -0.3012 4.6407 0.8846
30.3031 0.7922 4.6439 0.8846
30.3671 1.8919 4.6611 0.8842
15.3485 -17.1169 2.9938 0.9114
24.7229 -23.8607 4.4743 0.8706
24.6445 -22.1247 4.3128 0.8749
24.5601 -20.4980 4.1658 0.8789
30.2016 -18.5652 4.6165 0.8668
28.0955 -13.3272 4.0494 0.8821
27.1383 -10.5496 3.7916 0.8892
25.9216 -5.9719 3.4640 0.8983
25.7290 -4.9576 3.4121 0.8997
25.4532 -3.0224 3.3378 0.9018
25.3661 -2.0874 3.3144 0.9024
25.3109 -1.1658 3.2995 0.9028
25.3318 1.5781 3.3051 0.9027
24.6441 -23.7847 3.6778 0.8713
24.7462 -22.2160 3.5710 0.8748
24.9166 -20.7956 3.4850 0.8776
24.5091 -17.6207 3.2414 0.8856
23.9393 -15.9334 3.0880 0.8908
23.4473 -14.4133 2.9555 0.8952
22.8224 -8.8719 2.6294 0.9062
22.4070 -6.8968 2.5175 0.9100
22.2423 -5.9768 2.4731 0.9115
21.8935 -3.4046 2.3792 0.9147
21.8206 -2.5910 2.3596 0.9154
21.7197 -0.2160 2.3324 0.9163
15.3468 -17.1150 1.9460 0.9118
22.7989 -23.6508 2.7809 0.8765
19.1993 -18.5298 2.2588 0.8984
21.1199 -17.6268 2.3287 0.8954
20.3517 -14.6318 2.1219 0.9043
20.0395 -13.3378 2.0378 0.9079
19.7658 -12.1502 1.9641 0.9111
20.4427 -11.5716 1.9885 0.9100
20.2211 -10.5017 1.9289 0.9126
20.0260 -9.4994 1.8763 0.9149
19.8544 -8.5548 1.8301 0.9169
19.7039 -7.6596 1.7896 0.9186
19.5725 -6.8065 1.7542 0.9202
19.4584 -5.9892 1.7235 0.9215
19.3602 -5.2024 1.6970 0.9227
19.2769 -4.4411 1.6746 0.9237
19.1509 -2.9781 1.6407 0.9251
7.6014 -0.0756 0.6435 0.9699
7.6020 0.1987 0.6438 0.9699
15.3460 -17.1141 1.4254 0.9120
18.0615 -16.2147 1.5051 0.9073
17.8159 -14.8693 1.4390 0.9112
17.6002 -13.6429 1.3809 0.9146
17.4098 -12.5167 1.3296 0.9177
17.2731 -11.4965 1.2867 0.9202
17.3432 -6.7419 1.1539 0.9281
17.2684 -6.0052 1.1337 0.9293
17.1469 -4.6076 1.1010 0.9313
7.0698 -0.5818 0.4399 0.9720
7.0655 -0.0703 0.4382 0.9721
7.0659 0.1847 0.4383 0.9721
7.0681 0.4403 0.4391 0.9720
15.3451 -17.1132 0.9064 0.9121
15.6588 -15.1127 0.8581 0.9166
15.5278 -13.9401 0.8228 0.9199
15.4116 -12.8627 0.7915 0.9228
15.3084 -11.8664 0.7637 0.9254
15.8455 -10.5464 0.7505 0.9266
15.5353 -6.6938 0.6670 0.9345
15.4922 -6.0224 0.6554 0.9356
15.4542 -5.3743 0.6452 0.9366
15.4209 -4.7465 0.6362 0.9375
15.3921 -4.1361 0.6285 0.9382
15.3675 -3.5404 0.6218 0.9388
15.3469 -2.9571 0.6163 0.9394
6.6033 -0.5434 0.2613 0.9738
6.6020 -0.3041 0.2606 0.9739
6.6014 -0.0656 0.2603 0.9739
13.7657 -15.3517 0.3483 0.9208
13.7116 -14.2239 0.3337 0.9240
13.6634 -13.1869 0.3208 0.9268
14.1841 -10.9949 0.3032 0.9307
14.1517 -10.1743 0.2944 0.9326
14.1225 -9.3996 0.2866 0.9344
14.0838 -8.6574 0.2792 0.9360
14.0727 -7.9659 0.2732 0.9374
14.0326 -6.6564 0.2624 0.9398
14.0157 -6.0391 0.2578 0.9408
13.9655 -3.7527 0.2443 0.9438
13.9568 -3.2154 0.2419 0.9443
13.9495 -2.6878 0.2400 0.9448
6.1959 -0.7357 0.1054 0.9753
6.1952 -0.5098 0.1050 0.9754
6.1950 -0.2853 0.1048 0.9755
6.1951 -0.0616 0.1047 0.9755
6.1950 0.1620 0.1047 0.9755
10.6394 -11.8653 -0.0897 0.9382
12.1075 -12.5599 -0.0982 0.9326
12.7306 -9.1526 -0.0883 0.9392
12.7456 -7.8348 -0.0842 0.9419
12.7520 -7.2183 -0.0825 0.9431
12.7578 -6.6257 -0.0809 0.9441
12.7677 -5.5013 -0.0783 0.9459
12.7719 -4.9649 -0.0771 0.9467
12.7788 -3.9333 -0.0753 0.9479
12.7816 -3.4346 -0.0745 0.9484
12.7841 -2.9452 -0.0739 0.9489
12.7861 -2.4637 -0.0733 0.9492
5.8510 -0.9099 -0.0333 0.9766
5.8517 -0.4816 -0.0331 0.9768
5.8520 0.1530 -0.0330 0.9769
5.8518 0.3646 -0.0330 0.9768
10.6370 -11.8626 -0.4486 0.9382
11.0699 -11.4835 -0.4491 0.9382
11.4015 -11.0039 -0.4462 0.9386
11.6012 -7.7215 -0.3924 0.9458
11.6820 -6.0670 -0.3706 0.9487
11.7236 -5.0514 -0.3594 0.9502
11.7412 -4.5642 -0.3547 0.9508
11.7568 -4.0885 -0.3505 0.9514
11.7706 -3.6230 -0.3468 0.9519
11.7929 -2.7169 -0.3408 0.9527
11.8017 -2.2740 -0.3384 0.9530
5.5433 -0.6582 -0.1572 0.9779
5.5451 0.3454 -0.1564 0.9780
10.1689 -11.3406 -0.7725 0.9408
10.2712 -10.6550 -0.7505 0.9424
10.3496 -9.9887 -0.7294 0.9440
10.4210 -9.3555 -0.7102 0.9455
10.4861 -8.7518 -0.6927 0.9468
10.6943 -6.5739 -0.6366 0.9510
10.7352 -6.0767 -0.6256 0.9518
10.8060 -5.1259 -0.6065 0.9532
10.8362 -4.6691 -0.5984 0.9538
10.8634 -4.2230 -0.5911 0.9544
10.8875 -3.7862 -0.5846 0.9549
10.9088 -3.3577 -0.5788 0.9553
10.9275 -2.9364 -0.5738 0.9557
5.2627 -0.8184 -0.2701 0.9789
5.2656 -0.6252 -0.2689 0.9790
5.2691 -0.2427 -0.2675 0.9791
5.2697 -0.0524 -0.2673 0.9791
5.2696 0.1378 -0.2673 0.9791
5.2686 0.3282 -0.2677 0.9791
9.2754 -10.3441 -1.0187 0.9458
9.3789 -9.7293 -0.9909 0.9472
9.6397 -8.0454 -0.9206 0.9509
9.7124 -7.5287 -0.9010 0.9519
9.7790 -7.0306 -0.8831 0.9528
10.0722 -4.3399 -0.8042 0.9570
10.1630 -3.1282 -0.7797 0.9582
10.1864 -2.7373 -0.7734 0.9586
10.2066 -2.3514 -0.7680 0.9589
5.0065 -0.9647 -0.3738 0.9798
5.0112 -0.7793 -0.3718 0.9799
5.0175 -0.4129 -0.3691 0.9800
5.0198 0.1312 -0.3682 0.9801
8.6269 -8.9492 -1.1934 0.9513
8.7320 -8.4274 -1.1651 0.9524
8.8286 -7.9259 -1.1390 0.9534
8.9174 -7.4426 -1.1151 0.9544
9.0741 -6.5238 -1.0729 0.9561
9.2635 -5.2436 -1.0219 0.9581
9.3160 -4.8382 -1.0078 0.9587
9.3636 -4.4417 -0.9950 0.9592
9.5107 -2.9274 -0.9553 0.9608
9.5375 -2.5629 -0.9481 0.9611
9.5606 -2.2026 -0.9419 0.9613
4.7958 -0.5695 -0.4637 0.9808
4.7990 -0.3949 -0.4623 0.9808
4.8017 0.1255 -0.4611 0.9809
7.8630 -8.7690 -1.3991 0.9537
8.2934 -6.9217 -1.2832 0.9574
8.4615 -6.0833 -1.2379 0.9589
8.5356 -5.6811 -1.2179 0.9595
8.6659 -4.9053 -1.1829 0.9607
8.7228 -4.5301 -1.1675 0.9612
8.7745 -4.1622 -1.1536 0.9616
8.8214 -3.8009 -1.1410 0.9620
8.9013 -3.0955 -1.1195 0.9627
8.9347 -2.7501 -1.1105 0.9630
4.5752 -1.0541 -0.5577 0.9813
4.5893 -0.7137 -0.5517 0.9815
4.6012 -0.0458 -0.5466 0.9816
4.5993 0.2865 -0.5474 0.9816
7.4275 -7.7050 -1.5164 0.9577
7.5428 -7.2797 -1.4853 0.9585
7.6495 -6.8674 -1.4565 0.9593
7.9237 -5.6967 -1.3827 0.9613
8.0012 -5.3254 -1.3618 0.9619
8.1381 -4.6066 -1.3250 0.9629
8.1979 -4.2575 -1.3089 0.9634
8.2525 -3.9146 -1.2942 0.9638
8.3865 -2.9165 -1.2581 0.9648
4.5478 -1.0477 -0.6613 0.9813
4.5464 -0.8760 -0.6560 0.9815
4.5443 -0.5396 -0.6484 0.9817
4.5437 -0.3739 -0.6460 0.9818
4.5433 -0.2093 -0.6444 0.9818
4.5431 -0.0452 -0.6437 0.9818
4.5431 0.1188 -0.6439 0.9818
6.8142 -7.5994 -1.6815 0.9595
7.4473 -5.3542 -1.5110 0.9635
7.6680 -4.3405 -1.4516 0.9649
7.7299 -4.0145 -1.4349 0.9653
7.8376 -3.3771 -1.4059 0.9660
7.9253 -2.7561 -1.3823 0.9666
7.9620 -2.4507 -1.3724 0.9668
4.5782 -1.0547 -0.7740 0.9811
4.5765 -0.8818 -0.7678 0.9813
4.5733 -0.3763 -0.7559 0.9816
4.5726 -0.0455 -0.7533 0.9816
6.3839 -7.1195 -1.7974 0.9618
6.9344 -5.3753 -1.6491 0.9649
7.1029 -4.7275 -1.6037 0.9659
7.1776 -4.4121 -1.5836 0.9663
7.3095 -3.7961 -1.5481 0.9670
7.3671 -3.4946 -1.5326 0.9674
7.4194 -3.1969 -1.5185 0.9677
7.5469 -2.3229 -1.4842 0.9684
4.6091 -1.0619 -0.8890 0.9809
4.6072 -0.8877 -0.8819 0.9811
4.6057 -0.7162 -0.8761 0.9812
4.6035 -0.3788 -0.8682 0.9814
4.6027 -0.0458 -0.8652 0.9814
4.6032 0.2868 -0.8669 0.9814
6.0017 -6.6932 -1.9003 0.9639
6.1278 -6.3567 -1.8663 0.9645
6.4568 -5.3889 -1.7777 0.9662
6.5516 -5.0785 -1.7522 0.9667
6.7963 -4.1777 -1.6863 0.9679
6.9876 -3.3146 -1.6348 0.9689
7.0406 -3.0337 -1.6205 0.9691
7.0886 -2.7556 -1.6076 0.9694
7.1316 -2.4801 -1.5960 0.9696
7.1698 -2.2069 -1.5857 0.9698
7.2034 -1.9357 -1.5767 0.9700
4.6408 -1.0692 -1.0067 0.9807
4.6386 -0.8938 -0.9985 0.9809
4.6354 -0.5504 -0.9867 0.9811
4.6344 -0.3814 -0.9829 0.9812
4.6338 -0.2134 -0.9805 0.9812
4.6340 0.2887 -0.9814 0.9812
5.7844 -6.0005 -1.9588 0.9663
6.0098 -5.3953 -1.8981 0.9674
6.2935 -4.5247 -1.8217 0.9687
6.3750 -4.2430 -1.7998 0.9690
6.5198 -3.6906 -1.7608 0.9697
6.5837 -3.4192 -1.7436 0.9700
6.6422 -3.1508 -1.7278 0.9702
6.8256 -2.1009 -1.6784 0.9711
4.6708 -0.9000 -1.1179 0.9806
4.6688 -0.7260 -1.1105 0.9808
4.6672 -0.5542 -1.1046 0.9809
4.6660 -0.3840 -1.1003 0.9809
4.6650 -0.0464 -1.0964 0.9810
4.6651 0.1220 -1.0968 0.9810
4.6656 0.2907 -1.0986 0.9810
5.5895 -5.3946 -2.0113 0.9684
5.6971 -5.1146 -1.9823 0.9689
6.0596 -4.0332 -1.8847 0.9704
6.2678 -3.2551 -1.8286 0.9712
6.3262 -3.0008 -1.8129 0.9715
6.5097 -2.0037 -1.7635 0.9722
6.5436 -1.7584 -1.7544 0.9724
4.7037 -0.9063 -1.2403 0.9804
4.7015 -0.7311 -1.2319 0.9805
4.6997 -0.5581 -1.2254 0.9806
4.6984 -0.3867 -1.2206 0.9807
4.6976 -0.2164 -1.2176 0.9808
4.6974 0.1228 -1.2166 0.9808
4.6979 0.2927 -1.2187 0.9807
5.1928 -5.3868 -2.1181 0.9694
5.4123 -4.8589 -2.0590 0.9702
5.5115 -4.6000 -2.0323 0.9706
5.7709 -3.8410 -1.9625 0.9716
5.9775 -3.1044 -1.9068 0.9724
6.0357 -2.8631 -1.8911 0.9726
6.1368 -2.3856 -1.8639 0.9730
6.2185 -1.9141 -1.8419 0.9733
6.2524 -1.6801 -1.8328 0.9734
4.7375 -0.9129 -1.3658 0.9801
4.7331 -0.5620 -1.3493 0.9804
4.7317 -0.3894 -1.3440 0.9805
4.7304 -0.0470 -1.3392 0.9805
4.7305 0.1237 -1.3396 0.9805
5.1514 -4.6247 -2.1293 0.9714
5.3405 -4.1398 -2.0783 0.9721
5.5051 -3.6641 -2.0340 0.9727
5.7674 -2.7358 -1.9634 0.9736
5.8200 -2.5077 -1.9492 0.9738
5.9107 -2.0555 -1.9248 0.9742
5.9490 -1.8311 -1.9145 0.9743
6.0119 -1.3850 -1.8976 0.9745
4.7674 -0.5661 -1.4766 0.9801
4.7658 -0.3922 -1.4708 0.9802
4.7648 -0.2195 -1.4671 0.9802
4.7644 -0.0474 -1.4655 0.9803
4.7645 0.1246 -1.4660 0.9803
4.5835 -5.1117 -2.2822 0.9715
4.8088 -4.6411 -2.2215 0.9722
4.9113 -4.4092 -2.1939 0.9726
5.0074 -4.1793 -2.1680 0.9729
5.0974 -3.9512 -2.1438 0.9732
5.3996 -3.0564 -2.0624 0.9742
5.5187 -2.6178 -2.0304 0.9746
5.6986 -1.7540 -1.9819 0.9752
5.7855 -1.1148 -1.9585 0.9755
5.8058 -0.9028 -1.9531 0.9755
5.8409 -0.2690 -1.9436 0.9757
5.8441 -0.0581 -1.9427 0.9757
5.8432 0.1528 -1.9430 0.9757
5.8381 0.3637 -1.9444 0.9756
4.3686 -4.8719 -2.3401 0.9726
4.5890 -4.4290 -2.2807 0.9733
4.8722 -3.7767 -2.2045 0.9742
4.9547 -3.5622 -2.1822 0.9744
5.0317 -3.3490 -2.1615 0.9747
5.1033 -3.1371 -2.1422 0.9749
5.1697 -2.9263 -2.1243 0.9751
5.2309 -2.7167 -2.1079 0.9753
5.2872 -2.5080 -2.0927 0.9754
5.3387 -2.3003 -2.0788 0.9756
5.4650 -1.6821 -2.0448 0.9760
5.5511 -1.0696 -2.0216 0.9763
5.5986 -0.4607 -2.0089 0.9764
5.6060 -0.2582 -2.0069 0.9764
5.6092 -0.0558 -2.0060 0.9765
5.6032 0.3491 -2.0076 0.9764
4.1699 -4.6503 -2.3936 0.9736
4.2808 -4.4408 -2.3637 0.9739
4.3854 -4.2324 -2.3356 0.9742
4.4837 -4.0253 -2.3091 0.9745
4.5761 -3.8193 -2.2842 0.9748
4.6628 -3.6144 -2.2608 0.9750
4.8196 -3.2078 -2.2186 0.9755
4.9553 -2.8050 -2.1821 0.9759
5.0156 -2.6048 -2.1658 0.9761
5.2095 -1.8117 -2.1136 0.9767
5.2465 -1.6149 -2.1037 0.9768
5.3316 -1.0273 -2.0807 0.9770
5.3671 -0.6373 -2.0712 0.9771
5.3785 -0.4426 -2.0681 0.9771
5.3858 -0.2481 -2.0661 0.9772
5.3890 -0.0536 -2.0653 0.9772
5.3881 0.1408 -2.0655 0.9772
4.0937 -4.2466 -2.4141 0.9748
4.3826 -3.6577 -2.3363 0.9756
4.4675 -3.4630 -2.3134 0.9759
4.5470 -3.2691 -2.2920 0.9761
4.6213 -3.0758 -2.2720 0.9763
4.6905 -2.8833 -2.2534 0.9765
4.7547 -2.6914 -2.2361 0.9767
4.8686 -2.3095 -2.2054 0.9770
4.9186 -2.1193 -2.1920 0.9771
5.0049 -1.7405 -2.1687 0.9774
5.1017 -1.1754 -2.1427 0.9776
5.1604 -0.6127 -2.1269 0.9778
5.1789 -0.2385 -2.1219 0.9778
5.1812 0.1354 -2.1212 0.9778
3.9192 -4.0656 -2.4611 0.9757
4.2015 -3.5067 -2.3851 0.9764
4.2847 -3.3213 -2.3627 0.9766
4.5664 -2.5848 -2.2868 0.9774
4.6783 -2.2192 -2.2567 0.9777
4.7721 -1.8551 -2.2314 0.9779
4.8124 -1.6736 -2.2206 0.9780
4.8802 -1.3114 -2.2023 0.9782
4.9077 -1.1307 -2.1949 0.9783
4.9311 -0.9501 -2.1886 0.9783
4.9504 -0.7698 -2.1834 0.9784
4.9768 -0.4096 -2.1763 0.9784
4.9839 -0.2295 -2.1744 0.9785
4.9870 -0.0496 -2.1735 0.9785
4.9861 0.1304 -2.1738 0.9785
4.9812 0.3103 -2.1751 0.9785
3.6530 -4.0738 -2.5328 0.9762
3.7560 -3.8963 -2.5051 0.9764
3.8533 -3.7189 -2.4788 0.9767
3.9452 -3.5418 -2.4541 0.9769
4.0317 -3.3649 -2.4308 0.9771
4.1131 -3.1883 -2.4089 0.9773
4.1893 -3.0119 -2.3883 0.9775
4.2607 -2.8358 -2.3691 0.9777
4.4463 -2.3092 -2.3191 0.9782
4.4990 -2.1342 -2.3049 0.9783
4.5473 -1.9593 -2.2919 0.9784
4.5912 -1.7848 -2.2801 0.9785
4.6308 -1.6104 -2.2695 0.9786
4.6662 -1.4362 -2.2599 0.9787
4.7666 -0.7412 -2.2329 0.9790
4.7816 -0.5678 -2.2289 0.9790
4.7926 -0.3944 -2.2259 0.9790
4.7996 -0.2211 -2.2240 0.9790
4.8027 -0.0478 -2.2232 0.9791
4.7969 0.2988 -2.2247 0.9790
3.9515 -3.0630 -2.4524 0.9780
4.0261 -2.8945 -2.4323 0.9782
4.2779 -2.2217 -2.3645 0.9788
4.3296 -2.0538 -2.3506 0.9789
4.3770 -1.8859 -2.3378 0.9790
4.4201 -1.7183 -2.3262 0.9791
4.5245 -1.2158 -2.2981 0.9793
4.5511 -1.0485 -2.2909 0.9794
4.6180 -0.3800 -2.2729 0.9796
4.6249 -0.2130 -2.2710 0.9796
4.6223 0.2880 -2.2718 0.9796
3.4585 -3.5877 -2.5852 0.9778
3.8718 -2.7836 -2.4739 0.9787
3.9402 -2.6225 -2.4554 0.9789
4.0040 -2.4613 -2.4383 0.9790
4.1183 -2.1388 -2.4075 0.9793
4.2155 -1.8164 -2.3813 0.9795
4.3865 -1.0106 -2.3352 0.9799
4.4088 -0.8495 -2.3293 0.9800
4.4271 -0.6885 -2.3243 0.9800
4.4612 0.1166 -2.3151 0.9801
3.2271 -3.5989 -2.6475 0.9782
3.3223 -3.4464 -2.6218 0.9784
3.6544 -2.8327 -2.5324 0.9791
3.7925 -2.5242 -2.4952 0.9794
4.0621 -1.7503 -2.4226 0.9800
4.1411 -1.4401 -2.4013 0.9802
4.2299 -0.9745 -2.3774 0.9804
4.2518 -0.8192 -2.3715 0.9804
4.2945 -0.3534 -2.3600 0.9805
4.3011 -0.1981 -2.3582 0.9806
4.3032 0.1125 -2.3577 0.9806
4.2986 0.2678 -2.3589 0.9805
3.1007 -3.4579 -2.6815 0.9788
3.1934 -3.3127 -2.6565 0.9790
3.2813 -3.1669 -2.6329 0.9792
3.4432 -2.8737 -2.5893 0.9795
3.5173 -2.7264 -2.5693 0.9797
3.5869 -2.5788 -2.5506 0.9798
3.6523 -2.4309 -2.5330 0.9799
3.7133 -2.2826 -2.5165 0.9801
3.8715 -1.8365 -2.4739 0.9804
3.9568 -1.5381 -2.4510 0.9806
4.0263 -1.2393 -2.4322 0.9807
4.0554 -1.0898 -2.4244 0.9808
4.1197 -0.6406 -2.4071 0.9809
4.1337 -0.4909 -2.4033 0.9810
4.1439 -0.3410 -2.4006 0.9810
4.1505 -0.1912 -2.3988 0.9810
4.1525 0.1085 -2.3983 0.9810
