ply
format ascii 1.0
element vertex 229
property float32 x
property float32 y
property float32 z
property float32 I
end_header
8.5652 30.3244 5.5562 0.8799
6.5637 32.0642 5.7710 0.8755
10.4230 32.3199 5.2023 0.8716
-0.8594 6.6649 1.0295 0.9732
8.7580 31.0067 4.1957 0.8781
-0.8939 6.9328 0.9103 0.9722
-0.9520 7.3832 0.6302 0.9706
1.9534 15.1116 0.9449 0.9408
-12.3616 38.3724 2.4999 0.8508
-0.5501 5.9916 0.2373 0.9762
-12.9525 45.9126 1.8810 0.8262
-13.4939 41.8874 1.7352 0.8385
-13.9523 38.4213 1.6118 0.8491
9.9125 30.7366 0.5455 0.8788
9.9517 35.2329 0.6184 0.8638
10.2598 31.8135 -0.1882 0.8748
-0.6761 7.3646 -0.0416 0.9709
9.2250 32.6601 -0.9556 0.8730
8.8577 36.4165 -1.0553 0.8607
8.4057 41.0619 -1.1802 0.8456
-0.6742 7.3431 -0.2076 0.9709
7.9163 24.5470 -1.3080 0.9019
7.5470 26.7193 -1.4081 0.8948
6.5915 32.1997 -1.6668 0.8767
5.9604 35.7439 -1.8378 0.8649
-0.6766 7.3697 -0.3753 0.9708
6.7705 20.9939 -1.6174 0.9153
6.3836 22.6002 -1.7219 0.9101
5.9383 24.4138 -1.8423 0.9041
2.6017 15.6020 -1.1598 0.9385
4.0937 31.6697 -2.3414 0.8798
0.8155 44.0916 -3.2335 0.8379
-0.6712 7.3115 -0.5384 0.9710
5.5288 19.5742 -1.9527 0.9215
4.6021 22.4816 -2.2031 0.9119
2.6412 20.4332 -1.9780 0.9205
2.6179 28.4158 -2.7396 0.8917
-0.4036 7.3479 -0.7065 0.9709
-0.6706 7.3043 -0.7042 0.9710
4.8450 17.1553 -2.1177 0.9307
4.4597 18.3353 -2.2415 0.9268
3.9959 19.5200 -2.3668 0.9229
2.9769 17.8522 -2.1499 0.9297
1.4219 25.7405 -3.0623 0.9014
0.5151 27.8392 -3.3075 0.8939
-5.2343 40.5945 -4.8620 0.8480
4.6222 14.3279 -2.1327 0.9410
4.3022 15.2315 -2.2426 0.9381
2.8417 13.8818 -2.0077 0.9444
1.8992 20.6141 -2.9331 0.9198
1.2139 21.9743 -3.1183 0.9149
-0.4581 25.1917 -3.5700 0.9032
-0.6693 7.2899 -1.0372 0.9709
-10.4439 42.9971 -6.2694 0.8363
3.1918 13.1224 -2.2248 0.9467
2.6491 12.9407 -2.1761 0.9479
2.6835 16.0927 -2.6877 0.9360
1.0580 19.1544 -3.1603 0.9252
0.3756 20.2993 -3.3447 0.9210
-0.3920 21.5579 -3.5520 0.9163
-0.4030 7.3379 -1.2107 0.9706
-10.2412 36.3018 -6.2138 0.8582
-7.8934 24.5024 -4.2408 0.9009
3.8094 11.8122 -2.3328 0.9507
2.7192 13.2835 -2.5486 0.9463
2.3922 14.3457 -2.7337 0.9425
1.9585 15.1516 -2.8716 0.9397
0.9291 16.8191 -3.1662 0.9337
0.3255 17.7947 -3.3463 0.9301
-0.4042 7.3600 -1.3855 0.9704
-1.9297 21.0188 -3.9673 0.9177
-5.1545 25.2204 -4.8384 0.9005
-10.0526 31.2051 -6.1622 0.8751
-12.2867 33.8345 -6.7659 0.8637
3.5060 10.8714 -2.4145 0.9544
3.2081 11.3579 -2.4948 0.9529
2.5381 12.3987 -2.6752 0.9496
1.7528 13.5602 -2.8902 0.9456
1.3115 14.2353 -3.0218 0.9432
0.8276 14.9819 -3.1717 0.9405
-0.3006 16.5308 -3.4949 0.9346
-0.9558 17.4033 -3.6843 0.9312
-2.4920 19.3272 -4.1192 0.9234
-4.3869 21.4650 -4.6311 0.9143
-9.8700 27.1797 -6.1123 0.8885
2.6578 10.9269 -2.6430 0.9548
2.3305 11.3845 -2.7311 0.9534
1.9779 11.8608 -2.8261 0.9518
1.5974 12.3577 -2.9285 0.9501
0.7421 13.4334 -3.1620 0.9462
-2.1790 16.8991 -4.0046 0.9324
-2.9537 17.7476 -4.2285 0.9287
-4.7492 19.5524 -4.7289 0.9206
-6.9426 21.5512 -5.3214 0.9112
3.0181 9.3584 -2.5459 0.9602
2.7489 9.7321 -2.6184 0.9591
1.4673 11.3514 -2.9635 0.9538
1.0864 11.7921 -3.0661 0.9522
0.2354 12.7249 -3.2953 0.9488
-1.3181 14.3579 -3.7331 0.9422
-3.3382 16.3335 -4.3165 0.9334
1.0010 10.8659 -3.0891 0.9557
0.6217 11.2556 -3.1912 0.9542
0.2157 11.6570 -3.3006 0.9527
-0.1336 7.3483 -2.0806 0.9699
-1.7303 13.4191 -3.8303 0.9453
-2.9538 14.4530 -4.1761 0.9405
-4.4116 15.6381 -4.5998 0.9347
2.3976 8.4884 -2.7130 0.9638
2.1383 8.7913 -2.7828 0.9628
1.8629 9.1001 -2.8570 0.9619
1.5700 9.4151 -2.9359 0.9608
1.2586 9.7368 -3.0197 0.9597
0.5745 10.4008 -3.2040 0.9573
-0.1334 7.3354 -2.2566 0.9698
-0.6290 11.4532 -3.5281 0.9531
-1.0852 11.8201 -3.6509 0.9515
-1.5725 12.1955 -3.7821 0.9498
-2.6538 12.9850 -4.0765 0.9460
-3.9036 13.8369 -4.4221 0.9416
-4.6025 14.2869 -4.6168 0.9391
2.0043 8.2401 -2.8189 0.9649
1.4665 8.7946 -2.9637 0.9631
1.1734 9.0779 -3.0427 0.9622
0.1842 9.9532 -3.3091 0.9589
-0.5799 10.5580 -3.5148 0.9564
-1.4415 11.1793 -3.7468 0.9536
-1.9133 11.4960 -3.8739 0.9521
-2.4150 11.8163 -4.0090 0.9504
-3.5176 12.4689 -4.3065 0.9469
-4.1267 12.8101 -4.4737 0.9448
-4.7771 13.1549 -4.6522 0.9427
2.3415 7.2606 -2.7281 0.9681
2.1192 7.5027 -2.7880 0.9674
1.8844 7.7472 -2.8512 0.9667
1.6364 7.9940 -2.9180 0.9659
1.0980 8.4945 -3.0630 0.9643
0.8059 8.7481 -3.1416 0.9634
0.4974 9.0038 -3.2247 0.9624
0.1713 9.2614 -3.3125 0.9614
-0.5372 9.7819 -3.5033 0.9592
-1.3291 10.3075 -3.7166 0.9568
-1.7594 10.5715 -3.8325 0.9555
-2.2146 10.8357 -3.9550 0.9541
-3.7445 11.6235 -4.3670 0.9494
-4.3149 11.8821 -4.5206 0.9477
2.2784 7.0647 -2.8446 0.9687
1.0307 7.9737 -3.0811 0.9661
0.7553 8.1989 -3.1553 0.9653
0.1347 7.2788 -2.7899 0.9693
-0.1614 8.8763 -3.4021 0.9627
-0.4999 9.1019 -3.4933 0.9617
-0.8563 9.3268 -3.5893 0.9607
-1.2315 9.5507 -3.6903 0.9596
-1.6265 9.7729 -3.7967 0.9584
-2.0423 9.9929 -3.9086 0.9572
-2.4800 10.2102 -4.0265 0.9560
-2.9407 10.4240 -4.1506 0.9547
-3.4255 10.6334 -4.2811 0.9533
-3.9355 10.8375 -4.4185 0.9518
1.9769 6.9990 -2.9766 0.9691
1.2180 7.3041 -3.0307 0.9685
0.7100 7.7066 -3.1675 0.9671
0.1344 7.2631 -2.9731 0.9691
-0.1510 8.3044 -3.3993 0.9647
-0.4669 8.5008 -3.4844 0.9639
-0.7983 8.6950 -3.5736 0.9630
-1.1458 8.8867 -3.6672 0.9620
-1.5104 9.0753 -3.7654 0.9610
-3.1523 9.7853 -4.2076 0.9565
-3.6124 9.9476 -4.3314 0.9553
1.8770 6.6454 -3.0095 0.9703
0.6691 7.2624 -3.1785 0.9687
0.4111 7.4413 -3.2480 0.9680
-0.1417 7.7929 -3.3968 0.9666
-0.7467 8.1338 -3.5598 0.9650
-2.1296 8.7675 -3.9322 0.9614
-2.5143 8.9123 -4.0357 0.9604
-2.9154 9.0500 -4.1438 0.9594
1.7830 6.3126 -3.0363 0.9715
1.3632 6.6592 -3.1464 0.9705
0.8899 6.8848 -3.2134 0.9699
-0.1333 7.3323 -3.3946 0.9682
-1.0025 7.7748 -3.6286 0.9660
-1.3170 7.9133 -3.7133 0.9653
-1.9852 8.1732 -3.8933 0.9636
-2.3396 8.2934 -3.9887 0.9627
-2.7079 8.4059 -4.0879 0.9618
1.8830 5.8389 -3.0094 0.9730
0.8577 6.6350 -3.2817 0.9706
0.6249 6.7829 -3.3412 0.9701
0.1257 6.7910 -3.3317 0.9702
-0.6591 7.1787 -3.5361 0.9684
-1.5404 7.5369 -3.7735 0.9663
-1.8567 7.6442 -3.8587 0.9656
-2.1847 7.7442 -3.9470 0.9648
-2.5245 7.8364 -4.0385 0.9640
-2.8761 7.9200 -4.1332 0.9632
1.4270 5.8666 -3.1322 0.9732
1.2312 6.0146 -3.1849 0.9727
0.8147 6.3030 -3.2971 0.9718
0.5934 6.4410 -3.3556 0.9713
0.3630 6.5723 -3.4147 0.9708
-0.6214 6.7682 -3.5260 0.9698
-0.8868 6.8776 -3.5975 0.9692
-1.4467 7.0788 -3.7483 0.9680
-1.7415 7.1697 -3.8276 0.9673
1.7122 5.3093 -3.0554 0.9749
1.5395 5.4503 -3.1019 0.9745
1.1720 5.7254 -3.2009 0.9737
0.7743 5.9899 -3.3080 0.9728
-0.6097 6.6409 -3.6525 0.9700
-1.0965 6.5882 -3.6580 0.9700
-1.3620 6.6642 -3.7254 0.9695
-1.9215 6.8112 -3.8761 0.9682
-2.2141 6.8730 -3.9549 0.9676
1.6353 5.0708 -3.0761 0.9757
1.4693 5.2019 -3.1208 0.9753
1.1170 5.4566 -3.2157 0.9746
0.9304 5.5797 -3.2659 0.9742
0.3275 5.9290 -3.4283 0.9729
-0.1117 6.1418 -3.5466 0.9720
-0.5812 6.3308 -3.6705 0.9711
-0.8272 6.4154 -3.7346 0.9706
-1.3312 6.5132 -3.8381 0.9698
-1.5737 6.4790 -3.8494 0.9697
-1.8178 6.4436 -3.8654 0.9695
-2.0814 6.4612 -3.9192 0.9691
-2.3616 6.5034 -3.9946 0.9685
