ply
format ascii 1.0
element vertex 330
property float32 x
property float32 y
property float32 z
property float32 I
end_header
35.5223 32.7898 8.5241 0.8217
30.5859 32.6643 7.8904 0.8338
22.7113 32.7106 7.0217 0.8507
22.2729 34.7118 7.2723 0.8458
20.5124 34.6846 7.1053 0.8490
7.7483 31.2876 5.6835 0.8773
5.8244 33.9439 6.0727 0.8695
30.7394 24.4834 6.0203 0.8530
16.1481 18.5555 3.7683 0.9053
26.5740 32.8803 6.4765 0.8428
22.7826 32.8133 6.1196 0.8507
11.1350 30.3158 4.9476 0.8775
10.5579 32.3364 5.2111 0.8714
8.9766 31.3141 4.9904 0.8765
8.0941 32.6843 5.1583 0.8726
7.0303 33.5849 5.2565 0.8704
27.6290 23.7002 4.7402 0.8634
25.8227 23.8363 4.5763 0.8678
23.0177 33.1518 5.2556 0.8498
9.9349 30.4284 4.1683 0.8789
8.9011 31.0509 4.2063 0.8778
8.1336 32.8436 4.4061 0.8724
25.9292 23.9346 3.7892 0.8677
23.8644 23.6948 3.6112 0.8735
22.3884 23.9097 3.5173 0.8765
16.1547 18.5631 2.6425 0.9057
15.9085 13.6464 1.7743 0.9193
14.3017 13.2015 1.6476 0.9248
22.3912 23.9127 2.7732 0.8768
16.2891 18.7176 2.1005 0.9052
19.2674 23.8398 2.5948 0.8842
14.4287 13.3187 1.2176 0.9243
13.4217 13.3264 1.1729 0.9270
12.3780 13.2191 1.1230 0.9300
11.7912 13.5491 1.1138 0.9305
16.5347 23.8146 1.7978 0.8903
15.2420 28.0563 1.9800 0.8799
15.4535 13.2560 0.8028 0.9217
14.2420 13.1464 0.7643 0.9253
10.6977 13.2363 0.6711 0.9341
9.9514 13.2738 0.6542 0.9357
16.6415 23.9684 1.1506 0.8898
14.8308 32.7840 1.4188 0.8659
15.4391 47.2865 1.9614 0.8194
13.6364 12.5874 0.3135 0.9284
13.4239 13.3285 0.3195 0.9271
11.8517 13.6187 0.3050 0.9303
9.9521 13.2747 0.2803 0.9358
9.9846 15.5607 0.3123 0.9287
9.9697 18.3514 0.3528 0.9198
9.8796 24.1434 0.4407 0.9009
9.8933 26.9352 0.4847 0.8915
12.1476 9.6753 -0.0874 0.9398
12.1379 10.4119 -0.0900 0.9380
12.1153 12.0292 -0.0961 0.9340
12.1021 12.9244 -0.0997 0.9316
10.0866 15.7197 -0.1052 0.9280
9.9561 22.0082 -0.1360 0.9079
10.3396 36.0690 -0.2112 0.8606
10.9621 9.4033 -0.4067 0.9438
10.8705 10.7932 -0.4313 0.9405
10.8174 11.5525 -0.4456 0.9386
10.7586 12.3626 -0.4615 0.9365
9.9634 13.2897 -0.4677 0.9357
10.1884 14.6742 -0.5030 0.9310
10.1830 22.5100 -0.6957 0.9059
10.0050 24.4499 -0.7439 0.8997
9.2597 32.3018 -0.9462 0.8742
8.4625 40.4256 -1.1629 0.8477
7.9393 46.2676 -1.3218 0.8287
10.0521 8.0063 -0.6517 0.9498
9.7781 10.4425 -0.7255 0.9443
9.4922 12.6612 -0.8025 0.9386
9.3762 13.5043 -0.8337 0.9363
9.3124 14.5132 -0.8745 0.9333
9.0936 16.7388 -0.9661 0.9265
8.5297 20.8446 -1.1422 0.9137
7.9498 24.3483 -1.2990 0.9025
7.5890 26.4737 -1.3967 0.8956
6.6596 31.8141 -1.6484 0.8779
6.0487 35.2507 -1.8138 0.8665
9.3548 7.4509 -0.8769 0.9532
9.1794 7.8741 -0.8867 0.9527
9.1002 8.4002 -0.9081 0.9515
9.0137 8.9497 -0.9314 0.9503
8.9192 9.5253 -0.9568 0.9490
8.8158 10.1301 -0.9846 0.9476
8.2917 12.9225 -1.1258 0.9403
8.1348 13.7552 -1.1717 0.9379
8.0127 14.7491 -1.2307 0.9349
7.8432 15.7810 -1.2921 0.9318
7.4316 18.1610 -1.4388 0.9243
7.1382 19.4342 -1.5180 0.9203
6.8060 20.8450 -1.6078 0.9158
8.6770 7.4431 -1.0975 0.9551
8.3016 8.2426 -1.1231 0.9541
8.1969 8.7538 -1.1513 0.9530
7.9585 9.8471 -1.2155 0.9504
7.6748 11.0538 -1.2919 0.9474
7.5127 11.7084 -1.3356 0.9456
7.3351 12.4030 -1.3834 0.9437
6.2430 16.9969 -1.7384 0.9298
5.9474 18.2156 -1.8396 0.9259
5.5717 19.4365 -1.9412 0.9220
5.1475 20.7854 -2.0558 0.9176
4.6653 22.2869 -2.1860 0.9126
2.6804 15.6211 -1.5216 0.9383
7.1871 9.5866 -1.4232 0.9529
7.0328 10.1292 -1.4648 0.9515
6.8649 10.6989 -1.5100 0.9501
6.6820 11.2987 -1.5593 0.9485
6.2640 12.6036 -1.6718 0.9449
6.0246 13.3176 -1.7363 0.9428
5.5339 15.0663 -1.9066 0.9374
5.2260 16.0058 -2.0000 0.9344
3.3980 13.7211 -1.6791 0.9447
7.8070 6.2181 -1.4142 0.9605
7.7122 6.6155 -1.4397 0.9598
7.6075 7.0223 -1.4669 0.9590
6.6443 8.8625 -1.5694 0.9562
6.4873 9.3435 -1.6117 0.9551
5.4785 12.1105 -1.8833 0.9477
4.9374 13.4425 -2.0291 0.9438
4.6503 14.2427 -2.1229 0.9413
4.3378 15.1319 -2.2304 0.9384
2.9071 13.8880 -2.0104 0.9443
2.3432 13.6557 -1.9631 0.9456
7.3276 5.8363 -1.5432 0.9627
7.1258 6.5777 -1.5976 0.9614
6.8773 7.3446 -1.6576 0.9600
6.4561 7.4185 -1.6201 0.9609
5.8479 9.1138 -1.7839 0.9571
5.6647 9.5784 -1.8332 0.9559
5.2525 10.5685 -1.9442 0.9533
5.0206 11.0981 -2.0067 0.9518
4.7690 11.6542 -2.0744 0.9502
3.5367 14.2813 -2.4238 0.9421
2.7066 12.9300 -2.1763 0.9479
2.7427 15.9841 -2.6717 0.9364
6.9007 5.4963 -1.6582 0.9647
6.8027 5.8353 -1.6846 0.9642
6.3186 7.2606 -1.8091 0.9616
5.9693 7.3859 -1.7850 0.9621
5.7646 7.6892 -1.8063 0.9616
5.4405 8.4790 -1.8936 0.9598
5.2600 8.8941 -1.9422 0.9588
4.8563 9.7712 -2.0509 0.9566
4.6306 10.2361 -2.1117 0.9553
4.1238 11.2274 -2.2482 0.9525
3.8390 11.7580 -2.3249 0.9509
2.7826 13.2928 -2.5527 0.9462
6.5178 5.1913 -1.7613 0.9665
6.4195 5.5066 -1.7878 0.9660
6.2001 6.1560 -1.8469 0.9649
5.7991 7.1752 -1.9501 0.9630
5.0835 7.9224 -1.9897 0.9622
4.7166 8.6820 -2.0885 0.9604
4.5129 9.0803 -2.1434 0.9594
4.2942 9.4925 -2.2023 0.9583
2.9241 11.8074 -2.5712 0.9515
2.5817 12.3330 -2.6634 0.9498
6.1720 4.9158 -1.8544 0.9681
6.0741 5.2104 -1.8808 0.9677
5.9689 5.5098 -1.9091 0.9672
5.6058 6.4415 -2.0069 0.9655
5.4673 6.7647 -2.0442 0.9649
5.3136 7.0875 -2.0819 0.9643
5.0818 7.3193 -2.0942 0.9640
4.4099 8.1174 -2.1711 0.9628
4.2122 8.4754 -2.2243 0.9619
4.0008 8.8438 -2.2813 0.9609
3.7744 9.2237 -2.3423 0.9599
3.5319 9.6158 -2.4076 0.9588
2.9930 10.4409 -2.5527 0.9564
2.6934 10.8761 -2.6334 0.9550
2.3713 11.3282 -2.7201 0.9536
5.7608 4.9416 -1.9652 0.9691
5.6567 5.2215 -1.9932 0.9687
5.5451 5.5057 -2.0232 0.9682
5.1622 6.3872 -2.1264 0.9666
5.0169 6.6918 -2.1655 0.9660
4.8582 6.9972 -2.2056 0.9654
4.6751 7.2861 -2.2415 0.9649
4.3175 7.3004 -2.1960 0.9656
4.1379 7.6168 -2.2444 0.9648
3.0437 9.3220 -2.5390 0.9603
2.7783 9.6920 -2.6105 0.9592
2.4946 10.0731 -2.6869 0.9580
5.5711 4.4373 -2.0163 0.9708
5.3724 4.9591 -2.0698 0.9701
5.2625 5.2250 -2.0994 0.9696
5.0198 5.7682 -2.1647 0.9687
4.7441 6.3280 -2.2389 0.9677
4.5927 6.6148 -2.2797 0.9671
4.4297 6.9036 -2.3221 0.9665
3.7097 7.4643 -2.3597 0.9659
3.3032 8.0723 -2.4691 0.9644
2.5903 9.0362 -2.6611 0.9617
2.3212 9.3730 -2.7336 0.9607
2.0343 9.7184 -2.8108 0.9596
5.1121 4.7189 -2.1399 0.9713
5.0041 4.9685 -2.1690 0.9709
4.8888 5.2210 -2.2000 0.9705
4.4965 5.9977 -2.3056 0.9691
4.0251 6.8061 -2.4321 0.9675
3.5813 7.2058 -2.4750 0.9669
3.1058 7.5897 -2.5223 0.9663
2.8919 7.8735 -2.5799 0.9655
2.6650 8.1624 -2.6410 0.9647
2.4242 8.4567 -2.7058 0.9639
5.0652 4.0343 -2.1525 0.9731
4.9722 4.2651 -2.1775 0.9728
4.8728 4.4979 -2.2043 0.9724
4.6538 4.9700 -2.2633 0.9717
4.5337 5.2096 -2.2956 0.9713
4.4060 5.4516 -2.3300 0.9709
4.2705 5.6962 -2.3665 0.9704
4.1267 5.9436 -2.4052 0.9700
3.8128 6.4470 -2.4898 0.9689
3.6417 6.7033 -2.5358 0.9684
3.4567 6.9551 -2.5817 0.9678
3.2417 7.1659 -2.6144 0.9674
2.7231 7.4138 -2.6254 0.9673
2.5060 7.6752 -2.6838 0.9665
2.0330 8.2092 -2.8112 0.9650
1.7755 8.4819 -2.8805 0.9641
4.8405 3.8554 -2.2130 0.9741
4.7492 4.0739 -2.2376 0.9738
4.6517 4.2939 -2.2638 0.9735
4.3199 4.9639 -2.3532 0.9724
4.1953 5.1908 -2.3868 0.9720
4.0632 5.4197 -2.4223 0.9716
3.9233 5.6506 -2.4600 0.9712
3.7752 5.8835 -2.4999 0.9707
3.4529 6.3559 -2.5867 0.9697
3.2779 6.5954 -2.6338 0.9692
3.0909 6.8325 -2.6817 0.9686
2.6124 7.1124 -2.7096 0.9683
2.3628 7.2368 -2.7224 0.9682
2.1434 7.4769 -2.7815 0.9675
4.6318 3.6891 -2.2692 0.9750
4.4467 4.1046 -2.3191 0.9744
4.3450 4.3141 -2.3464 0.9741
4.1223 4.7369 -2.4064 0.9735
4.0008 4.9502 -2.4391 0.9731
3.7361 5.3810 -2.5104 0.9723
3.5923 5.5985 -2.5491 0.9719
2.9327 6.4829 -2.7267 0.9700
2.3070 7.0656 -2.8484 0.9687
1.3248 7.7206 -3.0019 0.9670
4.4371 3.5341 -2.3216 0.9758
4.2558 3.9284 -2.3704 0.9753
3.9390 4.5262 -2.4558 0.9744
3.2763 5.5400 -2.6342 0.9726
3.1212 5.7453 -2.6760 0.9721
2.9578 5.9513 -2.7200 0.9717
2.7858 6.1582 -2.7663 0.9712
2.6049 6.3657 -2.8150 0.9707
2.0002 6.9775 -2.9707 0.9691
1.2489 7.2783 -3.0224 0.9686
4.2549 3.3890 -2.3707 0.9765
4.1690 3.5762 -2.3938 0.9763
4.0776 3.7639 -2.4184 0.9761
3.7684 4.3301 -2.5017 0.9753
3.6530 4.5199 -2.5328 0.9750
3.5312 4.7101 -2.5656 0.9746
3.4027 4.9008 -2.6002 0.9743
3.1246 5.2833 -2.6751 0.9736
2.9744 5.4751 -2.7155 0.9732
2.8165 5.6671 -2.7580 0.9728
2.6506 5.8593 -2.8027 0.9723
2.4763 6.0516 -2.8496 0.9719
2.1014 6.4360 -2.9506 0.9709
1.6864 6.8098 -3.0575 0.9699
1.4562 6.9563 -3.0974 0.9695
1.1909 6.9406 -3.0690 0.9697
4.0839 3.2528 -2.4167 0.9772
3.9999 3.4311 -2.4394 0.9770
3.8157 3.7886 -2.4890 0.9766
3.6089 4.1469 -2.5447 0.9761
3.2533 4.6856 -2.6404 0.9752
3.1218 4.8653 -2.6758 0.9748
2.8383 5.2245 -2.7522 0.9741
2.1817 5.9397 -2.9290 0.9725
1.9973 6.1171 -2.9787 0.9720
1.3897 6.6389 -3.1397 0.9705
1.1677 6.8051 -3.1960 0.9700
3.7535 3.4648 -2.5057 0.9775
3.4594 3.9752 -2.5849 0.9768
3.3501 4.1451 -2.6143 0.9765
3.2349 4.3149 -2.6454 0.9763
3.1137 4.4846 -2.6780 0.9760
2.9862 4.6538 -2.7124 0.9757
2.8522 4.8228 -2.7484 0.9753
2.4095 5.3264 -2.8676 0.9743
1.7159 5.9858 -3.0544 0.9726
1.5224 6.1474 -3.1065 0.9722
1.1093 6.4649 -3.2175 0.9712
3.6908 3.1659 -2.5226 0.9783
3.6055 3.3282 -2.5456 0.9781
3.5153 3.4902 -2.5699 0.9779
3.3189 3.8137 -2.6228 0.9775
2.5932 4.7734 -2.8182 0.9758
2.4507 4.9309 -2.8566 0.9755
1.9823 5.3969 -2.9827 0.9744
1.8119 5.5495 -3.0286 0.9740
1.6342 5.7005 -3.0764 0.9736
1.4487 5.8497 -3.1264 0.9732
1.0538 6.1416 -3.2327 0.9723
3.6272 2.8890 -2.5397 0.9791
3.1864 3.6614 -2.6584 0.9781
2.9741 3.9671 -2.7156 0.9776
2.2004 4.8640 -2.9240 0.9759
2.0499 5.0094 -2.9645 0.9756
1.8928 5.1532 -3.0068 0.9753
1.5581 5.4354 -3.0969 0.9745
1.3802 5.5734 -3.1448 0.9742
3.4142 2.9287 -2.5971 0.9794
3.3331 3.0767 -2.6189 0.9793
3.2473 3.2242 -2.6420 0.9791
3.1567 3.3712 -2.6664 0.9789
3.0611 3.5175 -2.6922 0.9787
2.9605 3.6631 -2.7193 0.9785
2.3780 4.3773 -2.8761 0.9773
2.2448 4.5167 -2.9120 0.9770
2.1056 4.6545 -2.9495 0.9767
1.9604 4.7908 -2.9886 0.9764
1.8090 4.9252 -3.0293 0.9761
1.3165 5.3161 -3.1620 0.9750
0.9547 5.5641 -3.2594 0.9743
