ply
format ascii 1.0
element vertex 404
property float32 x
property float32 y
property float32 z
property float32 I
end_header
19.3824 -30.2564 6.3358 0.8642
12.9534 -17.3754 3.8214 0.9157
13.9816 -17.4298 3.9400 0.9132
15.0384 -17.4432 4.0610 0.9107
24.1754 -18.2514 5.3417 0.8842
41.6388 -15.8229 7.8543 0.8345
40.4476 -13.7510 7.5329 0.8407
11.1416 -17.3925 3.1642 0.9198
12.9834 -17.4156 3.3278 0.9158
13.9802 -17.4281 3.4227 0.9136
24.2777 -18.3285 4.6601 0.8842
37.3082 -20.6199 6.5303 0.8416
36.0624 -18.2943 6.1948 0.8491
35.0108 -16.2277 5.9116 0.8554
34.1189 -14.3686 5.6714 0.8609
33.3607 -12.6772 5.4672 0.8655
32.7161 -11.1225 5.2936 0.8695
32.1693 -9.6794 5.1464 0.8729
9.4636 -17.3699 2.5759 0.9233
11.1407 -17.3909 2.6895 0.9201
12.0382 -17.4021 2.7555 0.9182
12.9424 -17.3605 2.8198 0.9164
13.9788 -17.4264 2.9092 0.9138
15.7754 -17.0380 3.0237 0.9106
24.7237 -20.0793 4.1476 0.8794
33.1348 -25.0152 5.4064 0.8458
29.9441 -17.9635 4.5472 0.8686
28.5263 -14.4713 4.1654 0.8789
27.4740 -11.5702 3.8820 0.8867
11.8240 -17.0924 2.2318 0.9198
12.7471 -17.0985 2.2901 0.9178
23.4534 -21.9801 3.4516 0.8787
24.7956 -21.6398 3.5340 0.8760
24.9263 -18.8182 3.3538 0.8819
23.7753 -15.4340 3.0438 0.8922
23.9871 -13.2575 2.9430 0.8956
23.2981 -10.7988 2.7575 0.9019
23.0174 -9.6934 2.6819 0.9044
22.7727 -8.6537 2.6160 0.9066
22.5600 -7.6697 2.5587 0.9086
9.4620 -17.3669 1.6742 0.9237
12.7464 -17.0977 1.8053 0.9180
10.3009 -11.9482 1.3354 0.9386
19.2539 -19.3707 2.3120 0.8962
19.0530 -17.8561 2.2105 0.9005
21.4019 -18.6780 2.4047 0.8922
20.9606 -17.0231 2.2858 0.8973
20.2423 -14.1847 2.0924 0.9055
19.9487 -12.9499 2.0133 0.9089
19.7396 -11.8418 1.9486 0.9117
9.3023 -17.0739 1.2057 0.9250
11.8228 -17.0907 1.2887 0.9201
12.7458 -17.0968 1.3224 0.9181
13.7196 -17.1033 1.3596 0.9159
15.8489 -17.1175 1.4466 0.9107
17.5302 -13.2345 1.3621 0.9157
17.6981 -11.4890 1.3084 0.9189
17.8522 -10.7096 1.2909 0.9200
17.6038 -8.9304 1.2241 0.9239
17.2551 -5.8662 1.1301 0.9296
17.1927 -5.1731 1.1133 0.9306
10.8915 -17.0019 0.7962 0.9224
12.7452 -17.0960 0.8408 0.9182
13.7189 -17.1024 0.8645 0.9160
14.7505 -17.1092 0.8907 0.9135
15.7420 -15.8374 0.8805 0.9145
15.4809 -13.5107 0.8102 0.9210
15.8923 -11.1364 0.7652 0.9253
15.8201 -10.2698 0.7437 0.9273
15.6820 -8.6673 0.7065 0.9308
15.6236 -7.9258 0.6908 0.9323
15.5250 -6.5381 0.6642 0.9348
15.4474 -5.2517 0.6433 0.9368
10.8910 -17.0011 0.3411 0.9224
13.7978 -16.0042 0.3569 0.9189
13.7409 -14.8408 0.3416 0.9223
13.6904 -13.7734 0.3280 0.9253
13.6454 -12.7882 0.3159 0.9279
14.1723 -10.6994 0.3000 0.9314
14.0665 -7.7744 0.2715 0.9377
14.0463 -7.1257 0.2661 0.9389
13.9849 -4.7545 0.2495 0.9426
9.3011 -17.0716 -0.1095 0.9252
10.8904 -17.0003 -0.1137 0.9224
12.0853 -14.0179 -0.1042 0.9286
12.0999 -13.0684 -0.1003 0.9312
12.7333 -8.9228 -0.0875 0.9397
12.7537 -7.0489 -0.0820 0.9434
12.7727 -4.8537 -0.0769 0.9468
12.7794 -3.8452 -0.0751 0.9480
10.1041 -17.0761 -0.5587 0.9237
10.5358 -15.2303 -0.5215 0.9286
10.6865 -13.3221 -0.4809 0.9339
10.7507 -12.4699 -0.4636 0.9362
10.8087 -11.6739 -0.4480 0.9383
11.5082 -9.3463 -0.4174 0.9424
11.5457 -8.7165 -0.4073 0.9438
11.5799 -8.1145 -0.3981 0.9450
11.6109 -7.5374 -0.3898 0.9461
11.6648 -6.4470 -0.3753 0.9481
11.7089 -5.4271 -0.3634 0.9497
11.7278 -4.9389 -0.3583 0.9504
11.7446 -4.4630 -0.3538 0.9510
11.7596 -3.9979 -0.3497 0.9515
8.9495 -16.4263 -0.9487 0.9278
9.1051 -15.3877 -0.9067 0.9309
9.2447 -14.4312 -0.8692 0.9337
9.4840 -12.7216 -0.8047 0.9384
9.5869 -11.9513 -0.7770 0.9405
9.8996 -11.4827 -0.7689 0.9411
10.2232 -11.0414 -0.7631 0.9415
10.3054 -10.3679 -0.7414 0.9431
10.3794 -9.7274 -0.7214 0.9446
10.4470 -9.1174 -0.7032 0.9460
10.5088 -8.5347 -0.6866 0.9472
10.5653 -7.9763 -0.6714 0.9484
10.6169 -7.4397 -0.6575 0.9494
10.7816 -5.4695 -0.6131 0.9527
10.8137 -5.0123 -0.6045 0.9534
10.8427 -4.5662 -0.5966 0.9540
10.8687 -4.1302 -0.5897 0.9545
10.8919 -3.7029 -0.5834 0.9550
8.1270 -13.7347 -1.1701 0.9380
8.2885 -12.9386 -1.1266 0.9402
9.2156 -10.6892 -1.0348 0.9450
9.3223 -10.0684 -1.0061 0.9465
9.5920 -8.3712 -0.9335 0.9502
9.6674 -7.8514 -0.9132 0.9513
9.8001 -6.8673 -0.8774 0.9531
9.8582 -6.3996 -0.8618 0.9540
10.0040 -5.0750 -0.8225 0.9560
10.0803 -4.2451 -0.8020 0.9571
10.1418 -3.4479 -0.7854 0.9579
10.1674 -3.0593 -0.7785 0.9583
7.1468 -13.1175 -1.4341 0.9417
7.3363 -12.3984 -1.3831 0.9438
7.9436 -11.4830 -1.3405 0.9454
8.1795 -10.9717 -1.3138 0.9465
8.3187 -10.3704 -1.2763 0.9480
8.4466 -9.7973 -1.2419 0.9493
8.6726 -8.7251 -1.1811 0.9518
8.7722 -8.2212 -1.1542 0.9528
8.8640 -7.7359 -1.1295 0.9538
9.0978 -6.3752 -1.0665 0.9563
9.2788 -5.1283 -1.0178 0.9583
9.4160 -3.9654 -0.9809 0.9598
9.4531 -3.5922 -0.9709 0.9602
9.5157 -2.8632 -0.9540 0.9609
6.8211 -11.5277 -1.5911 0.9475
7.1783 -11.2054 -1.5807 0.9478
7.3554 -10.6327 -1.5358 0.9493
7.5134 -10.0782 -1.4932 0.9506
7.6591 -9.5480 -1.4540 0.9519
7.9177 -8.5514 -1.3843 0.9541
8.0324 -8.0811 -1.3534 0.9551
8.1384 -7.6271 -1.3249 0.9561
8.4101 -6.3493 -1.2517 0.9584
8.4870 -5.9472 -1.2310 0.9591
8.5578 -5.5554 -1.2120 0.9597
8.6229 -5.1728 -1.1944 0.9603
8.7369 -4.4322 -1.1637 0.9613
8.8314 -3.7192 -1.1383 0.9621
8.8719 -3.3714 -1.1274 0.9625
6.6104 -10.3190 -1.7364 0.9517
6.7841 -9.8069 -1.6896 0.9530
7.0936 -8.8430 -1.6063 0.9552
7.3591 -7.9481 -1.5348 0.9572
7.7830 -6.3209 -1.4206 0.9603
7.8700 -5.9415 -1.3972 0.9609
8.0246 -5.2092 -1.3556 0.9621
8.2652 -3.8310 -1.2908 0.9639
8.3126 -3.5007 -1.2780 0.9642
6.1189 -9.5518 -1.8687 0.9551
6.4533 -8.6562 -1.7787 0.9572
6.6029 -8.2314 -1.7384 0.9581
6.7420 -7.8201 -1.7009 0.9590
6.8712 -7.4212 -1.6661 0.9598
6.9914 -7.0338 -1.6338 0.9606
7.1031 -6.6568 -1.6037 0.9613
7.2068 -6.2896 -1.5758 0.9620
7.3030 -5.9311 -1.5499 0.9626
7.3922 -5.5808 -1.5258 0.9631
7.4747 -5.2379 -1.5036 0.9637
7.5511 -4.9018 -1.4831 0.9642
7.6861 -4.2480 -1.4467 0.9650
7.7453 -3.9292 -1.4307 0.9654
7.9327 -2.6969 -1.3803 0.9666
5.5084 -9.3092 -2.0331 0.9569
5.6925 -8.8861 -1.9836 0.9580
6.4411 -6.9566 -1.7820 0.9621
6.5617 -6.6015 -1.7495 0.9628
6.6740 -6.2548 -1.7192 0.9635
6.8758 -5.5842 -1.6649 0.9646
6.9661 -5.2591 -1.6406 0.9651
7.0498 -4.9401 -1.6180 0.9656
7.1273 -4.6268 -1.5972 0.9660
7.2648 -4.0152 -1.5602 0.9668
7.3252 -3.7161 -1.5439 0.9671
7.3805 -3.4209 -1.5290 0.9674
7.4307 -3.1293 -1.5155 0.9677
7.4761 -2.8410 -1.5032 0.9680
5.3187 -8.3026 -2.0842 0.9605
5.4873 -7.9323 -2.0388 0.9613
5.6449 -7.5719 -1.9964 0.9621
5.9299 -6.8781 -1.9196 0.9636
6.0585 -6.5434 -1.8850 0.9642
6.3954 -5.5814 -1.7943 0.9659
6.4928 -5.2731 -1.7680 0.9664
6.5834 -4.9702 -1.7436 0.9668
6.6676 -4.6723 -1.7210 0.9673
6.7456 -4.3790 -1.7000 0.9677
6.8177 -4.0900 -1.6805 0.9680
7.0012 -3.2451 -1.6311 0.9689
7.0980 -2.6973 -1.6051 0.9694
7.1761 -2.1592 -1.5840 0.9698
4.8118 -8.1320 -2.2207 0.9619
5.1531 -7.4492 -2.1288 0.9635
5.4529 -6.7977 -2.0481 0.9648
5.8349 -5.8702 -1.9452 0.9666
6.0501 -5.2801 -1.8873 0.9675
6.4718 -3.8824 -1.7737 0.9695
6.6558 -3.0850 -1.7241 0.9703
6.7070 -2.8245 -1.7104 0.9705
6.7948 -2.3101 -1.6867 0.9709
4.5215 -7.6414 -2.2989 0.9640
4.6931 -7.3261 -2.2527 0.9647
5.0058 -6.7146 -2.1685 0.9660
5.1480 -6.4177 -2.1302 0.9666
5.2815 -6.1261 -2.0942 0.9671
5.5242 -5.5576 -2.0289 0.9681
5.7371 -5.0069 -1.9716 0.9690
5.8332 -4.7374 -1.9457 0.9694
5.9229 -4.4715 -1.9215 0.9698
6.0065 -4.2090 -1.8990 0.9701
6.0841 -3.9496 -1.8781 0.9705
6.1561 -3.6930 -1.8587 0.9708
6.2225 -3.4392 -1.8408 0.9711
6.2837 -3.1877 -1.8243 0.9713
6.3909 -2.6914 -1.7955 0.9718
6.4789 -2.2026 -1.7718 0.9721
6.5159 -1.9606 -1.7618 0.9723
4.0842 -7.4963 -2.4167 0.9651
4.2614 -7.2018 -2.3689 0.9658
4.5854 -6.6285 -2.2817 0.9670
4.7333 -6.3490 -2.2419 0.9676
4.8724 -6.0741 -2.2044 0.9681
5.1263 -5.5366 -2.1360 0.9691
5.4517 -4.7578 -2.0484 0.9704
5.6354 -4.2545 -1.9989 0.9711
5.9326 -3.2789 -1.9189 0.9722
5.9934 -3.0404 -1.9025 0.9724
6.1001 -2.5690 -1.8738 0.9729
6.1463 -2.3356 -1.8614 0.9730
6.2248 -1.8730 -1.8402 0.9733
4.4859 -6.0173 -2.3085 0.9691
4.9838 -5.0140 -2.1744 0.9708
5.0903 -4.7705 -2.1457 0.9712
5.2838 -4.2912 -2.0936 0.9719
5.3713 -4.0551 -2.0700 0.9722
5.5291 -3.5893 -2.0276 0.9728
5.5998 -3.3593 -2.0085 0.9730
5.6652 -3.1311 -1.9909 0.9733
5.7808 -2.6795 -1.9598 0.9737
5.8314 -2.4558 -1.9462 0.9739
5.9185 -2.0121 -1.9227 0.9742
5.9552 -1.7919 -1.9128 0.9743
3.6475 -6.6948 -2.5343 0.9684
3.8138 -6.4454 -2.4895 0.9689
4.2602 -5.7144 -2.3693 0.9704
4.3928 -5.4761 -2.3336 0.9708
4.5178 -5.2403 -2.2999 0.9713
4.6358 -5.0068 -2.2681 0.9716
4.7468 -4.7756 -2.2382 0.9720
5.2082 -3.6496 -2.1140 0.9735
5.3530 -3.2113 -2.0750 0.9740
5.4176 -2.9943 -2.0576 0.9742
5.4772 -2.7786 -2.0415 0.9744
5.5320 -2.5641 -2.0268 0.9746
5.6274 -2.1384 -2.0011 0.9749
5.6683 -1.9271 -1.9901 0.9751
5.7047 -1.7165 -1.9803 0.9752
3.7721 -5.8883 -2.5007 0.9707
3.9165 -5.6615 -2.4618 0.9712
4.0531 -5.4367 -2.4250 0.9716
4.1823 -5.2138 -2.3902 0.9720
4.4196 -4.7734 -2.3263 0.9727
4.5283 -4.5558 -2.2971 0.9731
4.6307 -4.3398 -2.2695 0.9734
4.7269 -4.1253 -2.2436 0.9737
4.8173 -3.9123 -2.2193 0.9740
4.9812 -3.4905 -2.1751 0.9745
5.1238 -3.0738 -2.1367 0.9749
5.1875 -2.8671 -2.1196 0.9751
5.2463 -2.6614 -2.1037 0.9753
5.3004 -2.4568 -2.0892 0.9755
5.3947 -2.0500 -2.0638 0.9758
5.4351 -1.8478 -2.0529 0.9759
5.4712 -1.6462 -2.0432 0.9760
3.2856 -6.0305 -2.6317 0.9710
3.5893 -5.6030 -2.5499 0.9719
3.8624 -5.1808 -2.4764 0.9727
4.1072 -4.7640 -2.4105 0.9734
4.2197 -4.5575 -2.3802 0.9737
4.3259 -4.3522 -2.3516 0.9741
4.4261 -4.1480 -2.3246 0.9744
4.6090 -3.7432 -2.2753 0.9749
4.6921 -3.5423 -2.2530 0.9751
4.8425 -3.1436 -2.2125 0.9756
5.0308 -2.5521 -2.1618 0.9761
5.1771 -1.9673 -2.1224 0.9766
5.2170 -1.7736 -2.1116 0.9767
3.9243 -4.5518 -2.4597 0.9744
4.0341 -4.3570 -2.4302 0.9747
4.1378 -4.1629 -2.4022 0.9750
4.3280 -3.7771 -2.3510 0.9755
4.4147 -3.5854 -2.3276 0.9757
4.4962 -3.3944 -2.3057 0.9759
4.5725 -3.2042 -2.2852 0.9762
4.7103 -2.8257 -2.2481 0.9765
4.8289 -2.4497 -2.2161 0.9769
4.9730 -1.8898 -2.1773 0.9773
5.0123 -1.7041 -2.1667 0.9774
5.0474 -1.5187 -2.1573 0.9775
3.2644 -5.0958 -2.6374 0.9739
3.3964 -4.9098 -2.6019 0.9743
3.6411 -4.5391 -2.5360 0.9749
3.8610 -4.1701 -2.4768 0.9755
3.9623 -3.9863 -2.4495 0.9758
4.0579 -3.8030 -2.4237 0.9760
4.1481 -3.6202 -2.3995 0.9763
4.2330 -3.4378 -2.3766 0.9765
4.5228 -2.7132 -2.2986 0.9772
4.6909 -2.1742 -2.2533 0.9777
4.7810 -1.8168 -2.2290 0.9779
4.8197 -1.6386 -2.2186 0.9780
4.8543 -1.4606 -2.2093 0.9781
2.8432 -5.2186 -2.7508 0.9741
2.9845 -5.0438 -2.7128 0.9745
3.4850 -4.3445 -2.5780 0.9757
3.5949 -4.1698 -2.5484 0.9760
3.8913 -3.6469 -2.4686 0.9768
4.0625 -3.2993 -2.4225 0.9772
4.1406 -3.1260 -2.4015 0.9774
4.2824 -2.7800 -2.3633 0.9777
4.3463 -2.6073 -2.3461 0.9779
4.4057 -2.4350 -2.3301 0.9781
4.4607 -2.2629 -2.3153 0.9782
4.5577 -1.9194 -2.2891 0.9784
4.5999 -1.7480 -2.2778 0.9785
4.6720 -1.4058 -2.2584 0.9787
2.7163 -4.9857 -2.7850 0.9750
2.9835 -4.6573 -2.7131 0.9757
3.1078 -4.4926 -2.6796 0.9760
3.2262 -4.3275 -2.6477 0.9762
3.4458 -3.9969 -2.5886 0.9768
3.6437 -3.6658 -2.5353 0.9772
3.7348 -3.5001 -2.5108 0.9775
3.9020 -3.1690 -2.4657 0.9779
4.1172 -2.6727 -2.4078 0.9784
4.1798 -2.5075 -2.3909 0.9785
4.3417 -2.0124 -2.3473 0.9789
4.3872 -1.8476 -2.3351 0.9790
4.4286 -1.6829 -2.3239 0.9791
4.4995 -1.3538 -2.3048 0.9793
2.5978 -4.7682 -2.8169 0.9758
2.7302 -4.6140 -2.7813 0.9761
2.8566 -4.4591 -2.7473 0.9764
2.9771 -4.3037 -2.7148 0.9767
3.0921 -4.1476 -2.6838 0.9770
3.3057 -3.8342 -2.6263 0.9774
3.4046 -3.6771 -2.5997 0.9777
3.4984 -3.5196 -2.5744 0.9779
3.5872 -3.3619 -2.5505 0.9781
3.6712 -3.2040 -2.5279 0.9783
3.7505 -3.0460 -2.5065 0.9785
4.0223 -2.4130 -2.4333 0.9791
4.0793 -2.2546 -2.4180 0.9792
4.1322 -2.0963 -2.4037 0.9793
4.1809 -1.9379 -2.3906 0.9794
4.2256 -1.7795 -2.3786 0.9796
4.2662 -1.6212 -2.3676 0.9796
4.3358 -1.3046 -2.3489 0.9798
2.6149 -4.4192 -2.8123 0.9769
2.7373 -4.2730 -2.7794 0.9771
2.9659 -3.9783 -2.7178 0.9776
3.0723 -3.8300 -2.6892 0.9779
3.2698 -3.5315 -2.6360 0.9783
3.3612 -3.3816 -2.6114 0.9785
3.6072 -2.9295 -2.5451 0.9790
3.6801 -2.7783 -2.5255 0.9792
3.7486 -2.6268 -2.5070 0.9793
3.9287 -2.1714 -2.4585 0.9797
4.0720 -1.7149 -2.4199 0.9801
4.1479 -1.4102 -2.3995 0.9802
2.6250 -4.0977 -2.8096 0.9778
2.9501 -3.6777 -2.7220 0.9785
3.1423 -3.3938 -2.6703 0.9789
3.3956 -2.9635 -2.6021 0.9794
3.4712 -2.8191 -2.5817 0.9796
3.6093 -2.5292 -2.5445 0.9798
3.7308 -2.2381 -2.5118 0.9801
3.7855 -2.0922 -2.4971 0.9802
3.9648 -1.5067 -2.4488 0.9806
4.0001 -1.3599 -2.4393 0.9807
