ply
format ascii 1.0
element vertex 384
property float32 x
property float32 y
property float32 z
property float32 I
end_header
38.2913 -4.3391 6.7950 0.8551
37.8864 -1.5481 6.6860 0.8573
37.8613 1.1801 6.6792 0.8574
38.5400 5.3981 6.8620 0.8538
38.4121 9.6920 6.9854 0.8514
39.6326 13.0967 7.3600 0.8441
32.1789 13.2707 6.1376 0.8682
31.3180 -7.0308 4.9172 0.8782
30.3800 2.0434 4.6646 0.8841
30.5046 3.1580 4.6981 0.8833
30.6847 4.2978 4.7466 0.8822
30.9235 5.4726 4.8109 0.8807
31.2254 6.6932 4.8922 0.8788
30.1780 7.6144 4.7680 0.8817
31.1135 10.2815 5.0199 0.8758
31.7155 11.7626 5.1820 0.8721
26.1151 -6.8587 3.5161 0.8968
25.7029 -4.8057 3.4051 0.8999
25.3056 -1.0340 3.2981 0.9029
25.2973 0.7885 3.2958 0.9029
25.5190 3.5743 3.3555 0.9013
25.6591 4.5408 3.3933 0.9002
25.8353 5.5379 3.4407 0.8989
26.0957 13.0317 3.7984 0.8890
21.8812 -3.2810 2.3759 0.9148
21.8115 -2.4717 2.3572 0.9155
21.7617 -1.6754 2.3437 0.9159
21.7310 -0.8880 2.3355 0.9162
21.7191 -0.1051 2.3323 0.9163
22.0512 4.7267 2.4217 0.9133
22.1800 5.5963 2.4564 0.9121
22.3332 6.4984 2.4976 0.9107
19.2402 7.9348 2.2348 0.9197
22.5015 11.2368 2.7008 0.9038
19.3461 -5.0810 1.6932 0.9228
19.1435 -2.8705 1.6387 0.9252
7.6077 -0.5857 0.6459 0.9698
7.6031 -0.3107 0.6442 0.9699
7.6062 0.5116 0.6453 0.9699
19.1310 2.6795 1.6353 0.9254
19.0529 8.6725 1.7721 0.9194
17.1388 -4.5012 1.0988 0.9314
17.0922 -3.8371 1.0863 0.9322
17.0218 -2.5523 1.0673 0.9333
7.0666 -0.2888 0.4386 0.9721
7.0685 0.4754 0.4393 0.9720
17.0146 2.3831 1.0654 0.9335
17.0441 3.0163 1.0733 0.9330
17.1255 4.3210 1.0952 0.9317
17.1781 4.9983 1.1094 0.9308
17.2392 5.6967 1.1259 0.9298
17.3739 7.1650 1.1654 0.9274
16.7952 8.3871 1.1641 0.9275
15.3880 -4.0414 0.6273 0.9383
6.6052 -0.7485 0.2621 0.9737
6.6019 -0.2698 0.2605 0.9739
6.6014 -0.0320 0.2603 0.9739
15.3393 2.7146 0.6142 0.9395
15.3583 3.2921 0.6194 0.9391
15.3811 3.8809 0.6255 0.9385
15.4393 5.1019 0.6412 0.9370
15.5159 6.3988 0.6618 0.9350
14.9346 7.4580 0.6582 0.9354
13.9640 -3.6674 0.2439 0.9439
13.9555 -3.1330 0.2416 0.9444
6.1952 -0.4770 0.1050 0.9754
6.1950 -0.2531 0.1047 0.9755
6.1952 -0.0300 0.1046 0.9755
6.1950 0.1931 0.1047 0.9755
6.1965 0.8679 0.1057 0.9753
13.9468 2.4682 0.2392 0.9449
13.9535 2.9910 0.2411 0.9445
13.9711 4.0652 0.2458 0.9435
13.9821 4.6204 0.2487 0.9428
13.9946 5.1903 0.2521 0.9420
14.0089 5.7773 0.2560 0.9412
14.0250 6.3838 0.2603 0.9402
14.0408 7.0117 0.2651 0.9391
12.7844 -2.8701 -0.0738 0.9489
12.7864 -2.3907 -0.0732 0.9493
5.8511 -0.8773 -0.0333 0.9766
5.8517 -0.4505 -0.0330 0.9768
5.8520 -0.0283 -0.0329 0.9769
5.8520 0.1824 -0.0330 0.9769
5.8512 0.8196 -0.0333 0.9766
12.7869 2.2629 -0.0731 0.9494
12.7850 2.7405 -0.0736 0.9490
12.7801 3.7187 -0.0749 0.9482
12.7651 5.8104 -0.0790 0.9454
11.7844 -3.0950 -0.3431 0.9524
11.7944 -2.6478 -0.3404 0.9528
5.5395 -1.0357 -0.1587 0.9777
5.5418 -0.8310 -0.1578 0.9778
5.5447 -0.4269 -0.1566 0.9780
5.5455 -0.2266 -0.1563 0.9780
5.5456 0.1729 -0.1562 0.9780
5.5450 0.3729 -0.1565 0.9780
5.5423 0.7763 -0.1576 0.9779
11.7872 2.9741 -0.3423 0.9525
11.7760 3.4265 -0.3453 0.9521
11.6919 5.8387 -0.3680 0.9490
10.9301 -2.8706 -0.5731 0.9557
10.9457 -2.4573 -0.5689 0.9561
5.2596 -0.9834 -0.2714 0.9788
5.2632 -0.7892 -0.2699 0.9789
5.2660 -0.5967 -0.2688 0.9790
5.2693 -0.2153 -0.2674 0.9791
5.2697 -0.0255 -0.2673 0.9791
5.2695 0.1642 -0.2674 0.9791
5.2684 0.3544 -0.2678 0.9791
5.2666 0.5452 -0.2685 0.9790
5.2640 0.7373 -0.2696 0.9789
5.2606 0.9310 -0.2709 0.9788
10.9495 2.3470 -0.5679 0.9561
10.8742 4.0330 -0.5882 0.9546
10.8195 4.9248 -0.6029 0.9535
10.1898 -2.6762 -0.7725 0.9586
5.0073 -0.9362 -0.3735 0.9798
5.0153 -0.5683 -0.3701 0.9800
5.0200 -0.0243 -0.3681 0.9801
5.0184 0.3375 -0.3688 0.9800
5.0129 0.7021 -0.3711 0.9799
5.0033 1.0725 -0.3752 0.9797
10.1954 2.5724 -0.7710 0.9587
10.1735 2.9602 -0.7769 0.9584
10.1196 3.7532 -0.7914 0.9576
10.0874 4.1601 -0.8001 0.9572
4.7801 -1.0731 -0.4703 0.9805
4.7922 -0.7186 -0.4652 0.9807
4.7994 -0.3695 -0.4621 0.9808
4.8020 -0.0232 -0.4610 0.9809
4.8016 0.1497 -0.4612 0.9809
4.7973 0.4966 -0.4630 0.9808
9.5478 2.4091 -0.9454 0.9612
9.4241 3.8865 -0.9787 0.9599
9.3830 4.2709 -0.9897 0.9594
9.3375 4.6629 -1.0020 0.9589
8.9683 -2.3554 -1.1014 0.9633
4.5765 -1.0274 -0.5572 0.9813
4.5840 -0.8571 -0.5539 0.9814
4.5901 -0.6883 -0.5513 0.9815
4.5983 -0.3540 -0.5478 0.9816
4.6004 -0.1880 -0.5469 0.9816
4.6008 0.1434 -0.5468 0.9816
4.5990 0.3093 -0.5475 0.9816
4.5959 0.4758 -0.5489 0.9816
4.5915 0.6431 -0.5507 0.9815
8.9753 2.2646 -1.0995 0.9634
8.9478 2.6036 -1.1069 0.9632
8.9162 2.9464 -1.1154 0.9629
8.8804 3.2936 -1.1251 0.9626
8.7956 4.0036 -1.1479 0.9618
4.5476 -1.0209 -0.6604 0.9813
4.5451 -0.6815 -0.6512 0.9816
4.5442 -0.5150 -0.6480 0.9817
4.5432 -0.1857 -0.6443 0.9818
4.5431 -0.0220 -0.6437 0.9818
4.5432 0.1416 -0.6440 0.9818
4.5448 0.6366 -0.6502 0.9816
4.5459 0.8045 -0.6541 0.9815
4.5472 0.9747 -0.6589 0.9814
8.4649 2.1358 -1.2370 0.9653
8.4358 2.4546 -1.2448 0.9651
8.3644 3.1022 -1.2640 0.9646
8.3220 3.4320 -1.2755 0.9643
8.2226 4.1062 -1.3022 0.9636
4.5750 -0.6860 -0.7621 0.9814
4.5732 -0.3521 -0.7556 0.9816
4.5728 -0.1869 -0.7539 0.9816
4.5726 -0.0221 -0.7533 0.9816
4.5727 0.1425 -0.7537 0.9816
4.5737 0.4735 -0.7575 0.9815
4.5759 0.8098 -0.7655 0.9813
4.5774 0.9812 -0.7712 0.9812
7.9417 2.6243 -1.3779 0.9667
7.8094 3.5546 -1.4135 0.9658
7.7553 3.8729 -1.4281 0.9655
7.5848 -1.9920 -1.4740 0.9686
4.6088 -1.0347 -0.8878 0.9810
4.6070 -0.8614 -0.8809 0.9811
4.6055 -0.6906 -0.8753 0.9812
4.6034 -0.3544 -0.8678 0.9814
4.6029 -0.1881 -0.8659 0.9814
4.6028 0.1435 -0.8656 0.9814
4.6033 0.3096 -0.8672 0.9814
4.6083 0.9878 -0.8859 0.9810
7.5927 1.9157 -1.4719 0.9686
7.5616 2.2002 -1.4802 0.9685
7.3906 3.3640 -1.5263 0.9675
7.3354 3.6631 -1.5411 0.9672
4.6404 -1.0418 -1.0053 0.9807
4.6383 -0.8672 -0.9974 0.9809
4.6337 -0.1893 -0.9803 0.9812
4.6335 -0.0224 -0.9794 0.9812
4.6336 0.1444 -0.9799 0.9812
4.6341 0.3117 -0.9818 0.9812
4.6350 0.4798 -0.9850 0.9811
4.6362 0.6494 -0.9896 0.9810
4.6399 0.9946 -1.0030 0.9808
7.1486 2.3623 -1.5914 0.9697
6.8643 -1.8028 -1.6680 0.9713
4.6728 -1.0491 -1.1256 0.9805
4.6705 -0.8732 -1.1167 0.9807
4.6659 -0.3592 -1.0998 0.9810
4.6652 -0.1906 -1.0974 0.9810
4.6650 -0.0226 -1.0964 0.9810
4.6657 0.3138 -1.0990 0.9810
4.6667 0.4831 -1.1026 0.9809
4.6681 0.6538 -1.1078 0.9808
4.6699 0.8264 -1.1146 0.9807
4.6721 1.0015 -1.1230 0.9806
6.8406 1.9904 -1.6744 0.9712
6.8042 2.2485 -1.6842 0.9710
6.7631 2.5083 -1.6953 0.9708
6.6662 3.0343 -1.7214 0.9704
6.6101 3.3009 -1.7365 0.9701
6.5485 -1.7199 -1.7530 0.9724
4.7060 -1.0565 -1.2488 0.9803
4.6995 -0.5326 -1.2246 0.9806
4.6983 -0.3617 -1.2201 0.9807
4.6975 -0.1920 -1.2173 0.9808
4.6973 -0.0228 -1.2162 0.9808
4.6974 0.1464 -1.2168 0.9808
4.6980 0.3160 -1.2192 0.9807
4.6991 0.4865 -1.2232 0.9807
6.5567 1.6543 -1.7508 0.9724
6.4883 2.1440 -1.7693 0.9722
6.4471 2.3911 -1.7804 0.9720
6.4010 2.6398 -1.7928 0.9718
6.3501 2.8904 -1.8065 0.9716
6.2941 3.1431 -1.8216 0.9713
4.7401 -1.0641 -1.3753 0.9800
4.7347 -0.7100 -1.3553 0.9803
4.7329 -0.5363 -1.3484 0.9804
4.7315 -0.3643 -1.3434 0.9805
4.7307 -0.1933 -1.3403 0.9805
4.7304 -0.0229 -1.3391 0.9805
4.7305 0.1474 -1.3398 0.9805
4.7312 0.3182 -1.3424 0.9805
4.7324 0.4899 -1.3469 0.9804
4.7342 0.6631 -1.3533 0.9803
4.7364 0.8382 -1.3617 0.9802
4.7392 1.0159 -1.3721 0.9801
6.2654 1.5808 -1.8293 0.9735
6.2336 1.8138 -1.8379 0.9734
6.1560 2.2831 -1.8587 0.9731
6.1102 2.5199 -1.8711 0.9729
6.0595 2.7581 -1.8847 0.9727
5.9876 -1.5725 -1.9041 0.9744
4.7718 -0.8922 -1.4931 0.9799
4.7692 -0.7151 -1.4833 0.9800
4.7671 -0.5402 -1.4756 0.9801
4.7656 -0.3669 -1.4701 0.9802
4.7647 -0.1947 -1.4667 0.9802
4.7644 -0.0231 -1.4654 0.9803
4.7653 0.3205 -1.4690 0.9802
4.7711 0.8443 -1.4903 0.9799
4.7742 1.0234 -1.5018 0.9798
5.9640 1.7353 -1.9105 0.9743
5.9277 1.9588 -1.9202 0.9742
5.8869 2.1833 -1.9312 0.9741
5.7357 2.8643 -1.9719 0.9735
5.7889 -1.0824 -1.9576 0.9755
5.8084 -0.8709 -1.9523 0.9755
5.8237 -0.6600 -1.9482 0.9756
5.8443 -0.0283 -1.9427 0.9757
5.7719 1.2372 -1.9622 0.9754
5.7448 1.4495 -1.9695 0.9753
5.7134 1.6625 -1.9779 0.9752
5.6775 1.8761 -1.9876 0.9751
5.6370 2.0907 -1.9985 0.9750
5.5919 2.3061 -2.0106 0.9748
5.4873 2.7403 -2.0388 0.9745
5.5308 -1.2417 -2.0271 0.9762
5.5544 -1.0385 -2.0207 0.9763
5.5738 -0.8358 -2.0155 0.9763
5.5890 -0.6333 -2.0114 0.9764
5.6067 -0.2291 -2.0067 0.9764
5.6093 -0.0271 -2.0060 0.9765
5.6078 0.1748 -2.0064 0.9764
5.6021 0.3768 -2.0079 0.9764
5.5923 0.5789 -2.0105 0.9764
5.5376 1.1870 -2.0253 0.9762
5.4797 1.5945 -2.0409 0.9760
5.3103 2.4171 -2.0865 0.9755
5.2563 2.6249 -2.1010 0.9754
5.3690 -0.6084 -2.0707 0.9771
5.3798 -0.4142 -2.0678 0.9772
5.3892 -0.0261 -2.0652 0.9772
5.3877 0.1679 -2.0657 0.9772
5.3821 0.3620 -2.0672 0.9772
5.3723 0.5562 -2.0698 0.9771
5.3585 0.7505 -2.0735 0.9771
5.3182 1.1400 -2.0843 0.9770
5.2610 1.5308 -2.0997 0.9768
5.1743 1.9190 -2.1149 0.9766
5.1425 2.1208 -2.1317 0.9765
5.0406 2.5172 -2.1591 0.9762
5.1056 -1.1462 -2.1416 0.9776
5.1286 -0.9589 -2.1354 0.9777
5.1475 -0.7718 -2.1303 0.9778
5.1623 -0.5850 -2.1263 0.9778
5.1822 -0.0251 -2.1210 0.9779
5.1807 0.1615 -2.1214 0.9778
5.1752 0.3481 -2.1229 0.9778
5.1656 0.5348 -2.1254 0.9778
5.1341 0.9086 -2.1339 0.9777
5.1122 1.0958 -2.1398 0.9777
5.0212 1.6592 -2.1643 0.9774
4.9389 2.0368 -2.1865 0.9772
4.8910 2.2263 -2.1994 0.9770
4.8386 2.4163 -2.2135 0.9769
4.8848 -1.2829 -2.2011 0.9782
4.9343 -0.9226 -2.1877 0.9783
4.9529 -0.7427 -2.1827 0.9784
4.9846 -0.2037 -2.1742 0.9785
4.9871 -0.0241 -2.1735 0.9785
4.9802 0.3350 -2.1754 0.9785
4.9708 0.5146 -2.1779 0.9784
4.9573 0.6943 -2.1815 0.9784
4.9181 1.0542 -2.1921 0.9783
4.8924 1.2344 -2.1990 0.9782
4.8625 1.4149 -2.2071 0.9781
4.8284 1.5956 -2.2162 0.9781
4.7901 1.7766 -2.2266 0.9780
4.7004 2.1395 -2.2507 0.9777
4.6488 2.3215 -2.2646 0.9776
4.7508 -0.8882 -2.2372 0.9789
4.7835 -0.5421 -2.2284 0.9790
4.7938 -0.3691 -2.2256 0.9790
4.8028 -0.0233 -2.2232 0.9791
4.8013 0.1496 -2.2235 0.9790
4.7960 0.3226 -2.2250 0.9790
4.7866 0.4956 -2.2275 0.9790
4.7348 1.0149 -2.2415 0.9789
4.6466 1.5355 -2.2652 0.9787
4.5669 1.8834 -2.2867 0.9785
4.4700 2.2322 -2.3128 0.9782
4.5549 -1.0226 -2.2899 0.9794
4.5769 -0.8558 -2.2840 0.9795
4.6091 -0.5223 -2.2753 0.9795
4.6193 -0.3556 -2.2726 0.9796
4.6256 -0.1890 -2.2709 0.9796
4.6281 -0.0224 -2.2702 0.9796
4.6122 0.4775 -2.2745 0.9796
4.5821 0.8109 -2.2826 0.9795
4.5612 0.9777 -2.2882 0.9794
4.5363 1.1446 -2.2949 0.9794
4.5074 1.3115 -2.3027 0.9793
4.3962 1.8130 -2.3326 0.9790
4.3508 1.9804 -2.3449 0.9789
4.3647 -1.1463 -2.3411 0.9799
4.3902 -0.9856 -2.3342 0.9799
4.4535 -0.3429 -2.3172 0.9801
4.3964 0.9424 -2.3326 0.9799
4.3112 1.4246 -2.3555 0.9797
4.2749 1.5854 -2.3653 0.9797
4.1412 2.0680 -2.4013 0.9794
4.2085 -1.1053 -2.3832 0.9804
4.2336 -0.9504 -2.3764 0.9804
4.2722 -0.6406 -2.3660 0.9805
4.3042 -0.0208 -2.3574 0.9806
4.3028 0.1341 -2.3578 0.9806
4.2977 0.2890 -2.3592 0.9805
4.2762 0.5989 -2.3650 0.9805
4.2598 0.7539 -2.3694 0.9805
4.2396 0.9088 -2.3748 0.9804
4.2156 1.0637 -2.3813 0.9804
4.1560 1.3733 -2.3973 0.9802
4.1203 1.5282 -2.4069 0.9802
4.0807 1.6829 -2.4176 0.9801
4.0370 1.8376 -2.4294 0.9800
3.9892 1.9921 -2.4422 0.9799
4.0596 -1.0662 -2.4233 0.9808
4.1050 -0.7675 -2.4111 0.9809
4.1354 -0.4686 -2.4029 0.9810
4.1534 -0.0201 -2.3980 0.9810
4.1521 0.1294 -2.3984 0.9810
4.1471 0.2789 -2.3997 0.9810
4.1260 0.5779 -2.4054 0.9809
4.1099 0.7273 -2.4097 0.9809
4.0666 1.0260 -2.4214 0.9808
4.0081 1.3245 -2.4372 0.9807
3.9731 1.4735 -2.4466 0.9806
