ply
format ascii 1.0
element vertex 402
property float32 x
property float32 y
property float32 z
property float32 I
end_header
14.1475 -17.4319 3.9586 0.9128
15.2328 -17.4457 4.0837 0.9102
40.9852 -13.2521 7.5952 0.8395
40.8938 -11.6136 7.4958 0.8414
40.0832 -9.8384 7.2775 0.8457
39.4204 -8.1828 7.0991 0.8491
38.8881 -6.6215 6.9557 0.8520
38.4731 -5.1330 6.8440 0.8541
38.1657 -3.6989 6.7612 0.8558
14.1461 -17.4302 3.4390 0.9132
38.1999 -24.2088 6.9282 0.8328
37.9139 -22.1554 6.7272 0.8372
33.0860 -12.0304 5.3933 0.8672
32.4737 -10.5000 5.2284 0.8710
31.5241 -7.7376 4.9727 0.8769
31.1661 -6.4695 4.8763 0.8791
30.8758 -5.2573 4.7981 0.8810
14.1447 -17.4285 2.9229 0.9134
14.9434 -17.1142 2.9586 0.9124
24.5586 -21.0634 4.2132 0.8776
24.6994 -19.6857 4.1130 0.8804
32.7685 -24.2400 5.3078 0.8484
31.5617 -21.6332 4.9828 0.8570
29.6836 -17.3459 4.4770 0.8705
27.3024 -11.0561 3.8358 0.8880
26.8992 -9.7808 3.7272 0.8910
26.5532 -8.5857 3.6341 0.8935
26.0087 -6.3838 3.4874 0.8976
25.8008 -5.3557 3.4314 0.8992
25.6312 -4.3642 3.3858 0.9004
13.8831 -17.1061 2.3657 0.9152
14.9426 -17.1133 2.4396 0.9127
15.9946 -17.0385 2.5095 0.9103
23.5999 -21.7642 3.4473 0.8788
24.9899 -19.9173 3.4315 0.8794
24.5450 -18.1567 3.2784 0.8844
23.6258 -14.9726 3.0035 0.8936
23.8560 -12.8112 2.9077 0.8968
23.1887 -10.3773 2.7280 0.9028
22.6826 -8.2476 2.5917 0.9075
22.4789 -7.2683 2.5369 0.9093
22.0304 -4.5730 2.4161 0.9135
13.8824 -17.1053 1.8649 0.9154
14.9418 -17.1124 1.9231 0.9128
15.9937 -17.0376 1.9782 0.9105
19.2736 -19.1037 2.2972 0.8968
19.3859 -17.8780 2.2324 0.8995
21.2889 -18.2589 2.3742 0.8935
20.8561 -16.6225 2.2577 0.8985
20.4804 -15.1500 2.1565 0.9028
20.1527 -13.8132 2.0683 0.9066
20.4985 -11.9786 2.0098 0.9091
20.3027 -10.9029 1.9508 0.9116
20.0981 -9.8777 1.8957 0.9140
19.9181 -8.9136 1.8473 0.9161
19.6216 -7.1346 1.7674 0.9196
19.3970 -5.5087 1.7069 0.9222
19.1719 -3.2644 1.6463 0.9249
17.9161 -17.7582 1.5643 0.9038
17.9037 -15.3556 1.4626 0.9098
17.6777 -14.0893 1.4018 0.9134
17.4787 -12.9295 1.3482 0.9166
17.3027 -11.8598 1.3008 0.9194
17.4642 -7.8155 1.1865 0.9262
17.3749 -7.0360 1.1624 0.9276
17.1680 -4.8756 1.1067 0.9310
17.1169 -4.2013 1.0929 0.9318
17.0738 -3.5442 1.0813 0.9325
7.0713 -0.6853 0.4405 0.9719
15.8669 -16.9025 0.9141 0.9114
15.4533 -13.2540 0.8028 0.9217
15.8768 -10.8824 0.7590 0.9258
15.7968 -10.0111 0.7374 0.9279
15.6043 -7.6691 0.6856 0.9328
15.5534 -6.9604 0.6719 0.9341
15.4684 -5.6245 0.6490 0.9362
15.4029 -4.3744 0.6314 0.9379
15.3768 -3.7742 0.6243 0.9386
15.3363 -2.6113 0.6134 0.9396
6.6041 -0.6401 0.2616 0.9738
13.8510 -17.0666 0.3713 0.9158
13.7307 -14.6269 0.3389 0.9229
13.6805 -13.5600 0.3254 0.9258
13.6358 -12.5752 0.3133 0.9285
13.5958 -11.6608 0.3026 0.9309
14.1059 -8.9395 0.2821 0.9354
14.0425 -8.2059 0.2747 0.9370
14.0594 -7.5502 0.2696 0.9382
14.0397 -6.9001 0.2643 0.9393
14.0220 -6.2750 0.2595 0.9404
14.0063 -5.6718 0.2553 0.9413
13.9522 -2.8962 0.2407 0.9446
6.1963 -0.8267 0.1056 0.9753
12.4487 -11.4803 -0.0953 0.9345
12.7274 -9.4149 -0.0891 0.9386
12.7496 -7.4504 -0.0831 0.9426
12.7611 -6.2717 -0.0801 0.9447
12.7660 -5.7130 -0.0787 0.9456
12.7703 -5.1713 -0.0776 0.9464
12.7742 -4.6448 -0.0765 0.9471
12.7806 -3.6296 -0.0748 0.9482
12.7854 -2.6540 -0.0735 0.9491
5.8508 -0.9962 -0.0334 0.9765
5.8513 -0.7807 -0.0332 0.9767
5.8516 -0.5671 -0.0331 0.9768
10.6973 -13.1807 -0.4780 0.9343
10.7615 -12.3247 -0.4607 0.9366
10.8194 -11.5255 -0.4451 0.9387
11.3685 -11.2683 -0.4507 0.9380
11.4322 -10.5430 -0.4379 0.9397
11.4773 -9.8439 -0.4258 0.9413
11.5555 -8.5479 -0.4047 0.9441
11.5892 -7.9436 -0.3956 0.9453
11.6729 -6.2686 -0.3731 0.9484
11.6957 -5.7482 -0.3669 0.9492
11.7509 -4.2728 -0.3521 0.9512
11.7891 -2.8936 -0.3418 0.9526
5.5426 -0.7395 -0.1575 0.9779
5.5441 -0.5373 -0.1568 0.9780
10.0205 -11.4762 -0.7726 0.9408
10.2406 -10.9090 -0.7588 0.9418
10.3953 -9.5867 -0.7171 0.9449
10.4626 -8.9735 -0.6990 0.9463
10.5240 -8.3877 -0.6825 0.9475
10.6777 -6.7669 -0.6411 0.9506
10.7935 -5.3047 -0.6099 0.9530
10.8249 -4.8443 -0.6014 0.9536
10.9008 -3.5246 -0.5810 0.9552
10.9204 -3.1014 -0.5757 0.9556
10.9374 -2.6846 -0.5711 0.9559
5.2613 -0.8959 -0.2707 0.9789
5.2646 -0.7024 -0.2694 0.9790
5.2670 -0.5105 -0.2684 0.9790
9.1092 -11.2239 -1.0599 0.9437
9.2352 -10.5768 -1.0295 0.9452
9.4396 -9.3564 -0.9745 0.9481
9.5290 -8.7877 -0.9504 0.9493
9.6109 -8.2430 -0.9284 0.9505
9.8176 -6.7293 -0.8727 0.9534
9.8751 -6.2583 -0.8572 0.9542
9.9276 -5.8013 -0.8431 0.9549
9.9754 -5.3570 -0.8302 0.9556
10.0581 -4.5011 -0.8080 0.9568
10.1250 -3.6816 -0.7899 0.9577
10.1530 -3.2829 -0.7824 0.9581
10.1776 -2.8904 -0.7758 0.9585
10.1990 -2.5033 -0.7700 0.9588
5.0044 -1.0388 -0.3748 0.9797
5.0095 -0.8530 -0.3726 0.9798
8.5860 -9.1464 -1.2044 0.9508
8.6942 -8.6176 -1.1752 0.9520
8.7937 -8.1097 -1.1484 0.9531
8.8852 -7.6207 -1.1238 0.9541
9.0466 -6.6921 -1.0803 0.9558
9.1176 -6.2494 -1.0612 0.9566
9.2421 -5.4007 -1.0277 0.9579
9.3906 -4.2024 -0.9877 0.9595
9.4309 -3.8191 -0.9768 0.9599
9.4671 -3.4423 -0.9671 0.9603
9.5519 -2.3445 -0.9442 0.9612
4.7942 -0.6397 -0.4643 0.9808
4.7979 -0.4650 -0.4628 0.9808
8.0554 -7.9844 -1.3473 0.9553
8.1613 -7.5264 -1.3188 0.9563
8.2589 -7.0835 -1.2924 0.9571
8.3490 -6.6542 -1.2682 0.9579
8.4320 -6.2374 -1.2458 0.9586
8.5083 -5.8318 -1.2253 0.9593
8.6428 -5.0505 -1.1891 0.9605
8.8038 -3.9398 -1.1457 0.9619
8.8871 -3.2314 -1.1233 0.9626
8.9530 -2.5426 -1.1055 0.9632
8.9798 -2.2041 -1.0983 0.9634
4.5924 -0.6127 -0.5503 0.9815
7.2548 -8.3086 -1.5629 0.9564
7.3828 -7.8646 -1.5284 0.9574
7.5013 -7.4351 -1.4965 0.9582
7.7124 -6.6147 -1.4396 0.9598
7.8928 -5.8385 -1.3910 0.9611
8.0462 -5.0992 -1.3497 0.9622
8.1757 -4.3905 -1.3149 0.9632
8.2834 -3.7070 -1.2858 0.9640
8.3298 -3.3732 -1.2733 0.9643
8.3715 -3.0439 -1.2621 0.9647
8.4413 -2.3973 -1.2433 0.9652
8.4697 -2.0789 -1.2357 0.9654
4.5447 -0.6063 -0.6496 0.9816
6.6260 -8.1642 -1.7322 0.9583
6.7656 -7.7484 -1.6946 0.9592
6.8952 -7.3453 -1.6597 0.9600
7.1272 -6.5728 -1.5972 0.9615
7.2308 -6.2017 -1.5693 0.9621
7.3268 -5.8395 -1.5435 0.9627
7.5733 -4.7995 -1.4771 0.9643
7.6430 -4.4663 -1.4583 0.9647
7.7653 -3.8164 -1.4254 0.9655
7.9482 -2.5700 -1.3761 0.9667
7.9822 -2.2669 -1.3670 0.9669
8.0117 -1.9665 -1.3590 0.9671
4.5771 -0.9501 -0.7701 0.9812
4.5756 -0.7791 -0.7646 0.9814
4.5745 -0.6103 -0.7603 0.9815
4.5736 -0.4433 -0.7570 0.9815
6.5860 -6.5279 -1.7430 0.9630
6.8999 -5.4993 -1.6584 0.9647
6.9898 -5.1706 -1.6342 0.9652
7.0731 -4.8481 -1.6118 0.9657
7.2209 -4.2196 -1.5720 0.9665
7.2860 -3.9127 -1.5544 0.9669
7.3455 -3.6102 -1.5384 0.9672
7.3998 -3.3115 -1.5238 0.9675
7.4490 -3.0165 -1.5106 0.9678
7.4932 -2.7246 -1.4986 0.9681
7.5675 -2.1491 -1.4786 0.9685
4.6079 -0.9565 -0.8846 0.9810
4.6039 -0.4462 -0.8694 0.9814
5.9534 -6.8182 -1.9133 0.9637
6.0825 -6.4795 -1.8785 0.9643
6.2029 -6.1482 -1.8461 0.9649
6.3152 -5.8239 -1.8159 0.9655
6.4197 -5.5060 -1.7877 0.9660
6.5169 -5.1941 -1.7615 0.9665
6.6073 -4.8876 -1.7372 0.9670
6.7684 -4.2894 -1.6938 0.9678
6.9056 -3.7085 -1.6569 0.9685
7.0706 -2.8632 -1.6125 0.9693
7.1154 -2.5872 -1.6004 0.9695
7.1554 -2.3136 -1.5896 0.9697
7.2216 -1.7725 -1.5718 0.9701
4.6375 -0.7896 -0.9944 0.9810
4.6360 -0.6185 -0.9886 0.9811
4.6348 -0.4492 -0.9843 0.9811
5.4753 -6.7464 -2.0420 0.9649
5.6118 -6.4271 -2.0053 0.9655
5.7395 -6.1141 -1.9709 0.9661
5.9703 -5.5059 -1.9087 0.9672
6.1711 -4.9185 -1.8547 0.9681
6.4940 -3.7949 -1.7677 0.9696
6.5599 -3.5228 -1.7500 0.9699
6.6755 -2.9874 -1.7188 0.9704
6.7707 -2.4619 -1.6932 0.9708
6.8110 -2.2023 -1.6823 0.9710
4.6717 -0.9698 -1.1214 0.9806
4.6695 -0.7951 -1.1132 0.9807
5.3043 -6.0749 -2.0881 0.9672
5.5479 -5.4990 -2.0225 0.9682
5.8571 -4.6682 -1.9392 0.9695
6.1069 -3.8702 -1.8720 0.9706
6.3044 -3.0984 -1.8188 0.9714
6.3595 -2.8460 -1.8039 0.9716
6.4547 -2.3470 -1.7783 0.9720
6.4951 -2.1001 -1.7674 0.9722
4.7023 -0.8007 -1.2350 0.9805
4.6989 -0.4554 -1.2223 0.9807
4.8940 -6.0302 -2.1986 0.9682
5.1492 -5.4853 -2.1299 0.9692
5.3737 -4.9557 -2.0694 0.9701
5.5703 -4.4396 -2.0165 0.9708
5.7412 -3.9352 -1.9704 0.9715
5.8177 -3.6870 -1.9498 0.9718
6.0139 -2.9557 -1.8970 0.9725
6.0688 -2.7159 -1.8822 0.9727
6.1187 -2.4778 -1.8688 0.9729
6.1637 -2.2412 -1.8567 0.9731
4.7360 -0.8064 -1.3600 0.9802
4.7338 -0.6316 -1.3520 0.9803
4.7322 -0.4586 -1.3459 0.9804
5.0067 -4.9626 -2.1682 0.9709
5.1135 -4.7157 -2.1395 0.9713
5.2135 -4.4715 -2.1126 0.9717
5.4758 -3.7533 -2.0419 0.9726
5.8003 -2.5957 -1.9545 0.9738
5.8498 -2.3689 -1.9412 0.9739
5.8945 -2.1433 -1.9292 0.9741
5.9700 -1.6954 -1.9088 0.9744
4.7735 -0.9909 -1.4995 0.9798
4.7664 -0.4620 -1.4729 0.9802
4.8741 -4.4949 -2.2040 0.9724
5.0644 -4.0364 -2.1527 0.9731
5.4973 -2.7018 -2.0361 0.9745
5.6446 -2.0524 -1.9965 0.9750
5.6842 -1.8379 -1.9858 0.9751
5.7763 -1.1991 -1.9610 0.9754
5.7982 -0.9873 -1.9551 0.9755
5.8158 -0.7760 -1.9503 0.9756
5.8292 -0.5650 -1.9467 0.9756
4.3254 -4.9537 -2.3517 0.9725
4.4412 -4.7311 -2.3205 0.9728
4.5503 -4.5103 -2.2911 0.9732
4.6530 -4.2910 -2.2635 0.9735
4.7494 -4.0734 -2.2375 0.9738
4.9243 -3.6427 -2.1904 0.9743
5.0033 -3.4294 -2.1692 0.9746
5.0768 -3.2174 -2.1494 0.9748
5.2081 -2.7969 -2.1140 0.9752
5.4116 -1.9677 -2.0592 0.9758
5.4856 -1.5579 -2.0393 0.9761
5.5160 -1.3539 -2.0311 0.9762
5.5420 -1.1504 -2.0241 0.9762
5.5812 -0.7446 -2.0135 0.9764
5.5944 -0.5422 -2.0100 0.9764
4.0078 -4.9382 -2.4372 0.9731
4.3475 -4.3092 -2.3458 0.9741
4.5424 -3.8959 -2.2933 0.9747
4.6310 -3.6910 -2.2694 0.9750
4.9310 -2.8815 -2.1886 0.9758
5.0503 -2.4821 -2.1565 0.9762
5.1028 -2.2836 -2.1424 0.9763
5.1938 -1.8885 -2.1179 0.9766
5.2969 -1.3001 -2.0901 0.9769
5.3226 -1.1048 -2.0832 0.9770
5.3440 -0.9100 -2.0774 0.9770
5.3613 -0.7153 -2.0727 0.9771
5.3744 -0.5209 -2.0692 0.9771
3.8274 -4.7160 -2.4858 0.9741
4.1588 -4.1222 -2.3966 0.9750
4.2571 -3.9259 -2.3701 0.9753
4.4364 -3.5358 -2.3218 0.9758
4.5939 -3.1487 -2.2794 0.9762
4.7308 -2.7645 -2.2425 0.9766
4.7919 -2.5733 -2.2261 0.9768
4.8998 -2.1928 -2.1970 0.9771
4.9469 -2.0033 -2.1843 0.9772
4.9895 -1.8142 -2.1729 0.9773
5.1376 -0.8748 -2.1330 0.9777
5.1547 -0.6877 -2.1284 0.9778
5.1676 -0.5008 -2.1249 0.9778
3.6597 -4.5093 -2.5310 0.9750
3.9828 -3.9477 -2.4440 0.9758
4.1692 -3.5758 -2.3938 0.9763
4.3339 -3.2060 -2.3494 0.9768
4.4085 -3.0217 -2.3293 0.9769
4.4782 -2.8380 -2.3106 0.9771
4.6582 -2.2894 -2.2621 0.9776
4.7090 -2.1074 -2.2484 0.9777
4.7973 -1.7443 -2.2246 0.9780
4.8348 -1.5633 -2.2145 0.9781
4.8682 -1.3826 -2.2055 0.9782
4.8973 -1.2021 -2.1977 0.9782
4.9223 -1.0218 -2.1910 0.9783
4.9600 -0.6617 -2.1808 0.9784
4.9728 -0.4820 -2.1774 0.9784
3.5031 -4.3163 -2.5732 0.9758
3.6138 -4.1388 -2.5433 0.9761
3.7188 -3.9615 -2.5151 0.9763
3.9117 -3.6075 -2.4631 0.9768
4.0001 -3.4308 -2.4393 0.9770
4.3026 -2.7267 -2.3579 0.9778
4.3661 -2.5514 -2.3408 0.9780
4.4250 -2.3763 -2.3249 0.9781
4.4793 -2.2015 -2.3103 0.9782
4.6159 -1.6784 -2.2735 0.9786
4.7143 -1.1571 -2.2470 0.9788
4.7886 -0.4641 -2.2270 0.9790
3.3564 -4.1356 -2.6126 0.9765
3.4642 -3.9675 -2.5836 0.9768
3.6632 -3.6309 -2.5300 0.9773
3.7547 -3.4626 -2.5054 0.9775
3.8410 -3.2943 -2.4822 0.9777
3.9222 -3.1261 -2.4603 0.9779
4.1992 -2.4539 -2.3857 0.9786
4.2569 -2.2860 -2.3702 0.9787
4.3102 -2.1184 -2.3558 0.9788
4.4038 -1.7833 -2.3306 0.9791
4.4443 -1.6160 -2.3197 0.9792
4.5855 -0.7808 -2.2817 0.9795
3.2187 -3.9659 -2.6497 0.9772
3.5175 -3.4865 -2.5693 0.9779
3.6067 -3.3261 -2.5453 0.9781
4.0412 -2.3616 -2.4282 0.9791
4.0978 -2.2006 -2.4130 0.9793
4.1501 -2.0396 -2.3989 0.9794
4.1981 -1.8787 -2.3860 0.9795
4.2419 -1.7178 -2.3742 0.9796
4.3767 -1.0743 -2.3379 0.9799
4.4004 -0.9134 -2.3315 0.9800
4.4363 -0.5919 -2.3218 0.9800
4.4484 -0.4311 -2.3186 0.9801
3.0889 -3.8060 -2.6847 0.9779
3.1910 -3.6545 -2.6572 0.9781
3.2879 -3.5025 -2.6311 0.9783
3.3798 -3.3500 -2.6064 0.9785
3.4668 -3.1971 -2.5829 0.9787
3.6265 -2.8904 -2.5399 0.9791
3.8914 -2.2740 -2.4686 0.9797
3.9468 -2.1195 -2.4537 0.9798
4.1270 -1.5006 -2.4051 0.9802
4.1620 -1.3457 -2.3957 0.9802
4.2202 -1.0358 -2.3800 0.9804
4.2435 -0.8809 -2.3737 0.9804
4.2631 -0.7259 -2.3685 0.9805
4.2788 -0.5709 -2.3643 0.9805
2.9663 -3.6550 -2.7177 0.9785
3.1599 -3.3662 -2.6656 0.9789
3.4144 -2.9285 -2.5970 0.9794
3.5612 -2.6344 -2.5575 0.9797
3.6906 -2.3389 -2.5226 0.9800
3.7490 -2.1908 -2.5069 0.9801
3.8994 -1.7450 -2.4664 0.9805
4.0139 -1.2979 -2.4356 0.9807
4.0444 -1.1486 -2.4274 0.9808
4.1402 -0.4013 -2.4016 0.9810
