ply
format ascii 1.0
element vertex 342
property float32 x
property float32 y
property float32 z
property float32 I
end_header
39.0167 11.0061 7.1482 0.8482
36.1926 13.1570 6.7903 0.8552
40.0029 23.6003 8.1896 0.8281
30.0535 32.7258 7.8345 0.8349
15.8595 18.6018 4.3103 0.9055
30.6769 7.4446 4.8359 0.8801
30.5006 8.6038 4.8549 0.8796
31.0025 9.9928 4.9900 0.8765
31.5997 11.4873 5.1508 0.8728
29.3092 13.1734 4.9227 0.8781
26.6899 13.1993 4.5614 0.8865
37.1401 23.7990 6.7576 0.8365
34.2512 23.7730 6.3871 0.8447
30.2534 24.4884 5.9627 0.8543
30.2004 32.8857 6.8400 0.8347
25.9922 6.3078 3.4830 0.8977
25.6911 9.3394 3.5597 0.8956
26.5463 11.9316 3.7900 0.8892
24.4558 13.2380 3.6213 0.8939
22.1512 13.0684 3.3491 0.9015
18.9542 13.1557 3.0045 0.9111
31.6466 23.7401 5.1517 0.8525
29.4520 23.8397 4.9342 0.8583
26.2936 24.7024 4.6980 0.8646
15.9609 18.7206 3.2036 0.9055
22.1452 5.3742 2.4470 0.9124
22.2960 6.2894 2.4876 0.9110
22.4455 7.2347 2.5324 0.9095
21.6641 7.8755 2.4753 0.9114
19.4182 7.8809 2.2503 0.9191
22.4667 11.1108 2.6914 0.9041
19.3147 13.4059 2.5247 0.9097
16.2841 13.1810 2.2497 0.9192
23.5902 23.8595 3.6029 0.8737
21.9091 23.8572 3.4782 0.8778
21.0068 24.6390 3.4769 0.8779
19.3022 4.6842 1.6814 0.9234
19.3923 5.4703 1.7057 0.9223
19.4982 6.2847 1.7342 0.9211
19.6069 7.1276 1.7660 0.9197
18.8761 7.6609 1.7245 0.9215
19.0314 8.5539 1.7663 0.9197
19.4107 10.5070 1.8685 0.9152
15.3035 13.3504 1.7192 0.9217
13.3668 13.5194 1.6094 0.9265
20.3499 23.8685 2.6552 0.8817
17.1135 4.1531 1.0920 0.9319
17.1653 4.8421 1.1060 0.9310
17.2260 5.5523 1.1223 0.9300
16.6845 7.4991 1.1343 0.9293
16.8965 9.1461 1.1914 0.9259
17.5139 13.1383 1.3577 0.9160
15.3749 13.4126 1.2652 0.9215
13.9946 13.1477 1.1907 0.9259
15.3750 3.7312 0.6238 0.9386
15.4016 4.3446 0.6310 0.9379
15.4326 4.9743 0.6394 0.9372
15.5547 6.9913 0.6724 0.9340
15.0647 7.4502 0.6627 0.9349
15.2668 11.4526 0.7525 0.9264
15.3672 12.4389 0.7796 0.9239
15.2841 13.3335 0.7998 0.9220
13.9957 13.1488 0.7572 0.9260
11.4043 13.3762 0.6931 0.9321
13.9594 3.3876 0.2426 0.9442
13.9688 3.9404 0.2452 0.9436
13.9797 4.5060 0.2481 0.9429
14.0227 6.3027 0.2597 0.9403
13.7488 7.4422 0.2641 0.9394
13.4520 7.9362 0.2638 0.9394
13.4763 8.6355 0.2704 0.9380
13.5672 10.9819 0.2948 0.9326
13.6468 12.8209 0.3163 0.9278
13.1805 13.3309 0.3167 0.9277
12.7702 5.1828 -0.0776 0.9464
12.7657 5.7377 -0.0788 0.9456
12.7607 6.3107 -0.0801 0.9446
12.7551 6.9044 -0.0817 0.9436
12.6033 7.4355 -0.0824 0.9431
12.1701 7.7985 -0.0814 0.9438
12.1546 9.1179 -0.0855 0.9410
12.1456 9.8311 -0.0880 0.9394
12.1356 10.5867 -0.0907 0.9376
12.1245 11.3907 -0.0937 0.9356
12.1121 12.2503 -0.0970 0.9334
12.0983 13.1741 -0.1007 0.9310
11.7898 2.8611 -0.3416 0.9526
11.7658 3.7924 -0.3481 0.9517
11.7510 4.2718 -0.3521 0.9512
11.7342 4.7623 -0.3566 0.9506
11.6942 5.7833 -0.3673 0.9491
11.6707 6.3174 -0.3737 0.9483
11.0640 7.6793 -0.3792 0.9475
10.9525 9.5546 -0.4093 0.9435
10.9074 10.2473 -0.4214 0.9419
10.8575 10.9814 -0.4348 0.9401
10.9386 2.6545 -0.5708 0.9559
10.9014 3.5138 -0.5809 0.9552
10.8785 3.9546 -0.5870 0.9547
10.8526 4.4046 -0.5940 0.9542
10.7912 5.3367 -0.6105 0.9529
10.6714 6.8382 -0.6428 0.9505
10.6030 7.3593 -0.6546 0.9496
10.1031 7.5790 -0.6405 0.9507
10.0398 8.1266 -0.6551 0.9496
9.9785 8.7050 -0.6716 0.9483
9.8373 9.9496 -0.7096 0.9455
9.7560 10.6234 -0.7315 0.9439
10.1788 2.8713 -0.7754 0.9585
10.1250 3.6807 -0.7899 0.9577
10.0564 4.5200 -0.8084 0.9567
10.0159 4.9533 -0.8193 0.9562
9.8077 6.8073 -0.8754 0.9532
9.7269 7.2968 -0.8916 0.9524
9.2376 7.4773 -0.8714 0.9535
9.1619 7.9926 -0.8915 0.9524
8.9906 9.0931 -0.9376 0.9500
8.8926 9.6833 -0.9640 0.9486
8.7853 10.3044 -0.9929 0.9471
9.4999 3.0621 -0.9582 0.9607
9.4671 3.4416 -0.9671 0.9603
9.4301 3.8272 -0.9771 0.9599
9.3887 4.2198 -0.9882 0.9595
9.1739 5.8785 -1.0460 0.9572
9.0327 6.7760 -1.0841 0.9556
8.9408 7.2371 -1.1043 0.9548
8.3754 7.8685 -1.1033 0.9549
8.9816 2.1796 -1.0978 0.9635
8.9544 2.5259 -1.1052 0.9632
8.9230 2.8761 -1.1136 0.9629
8.8872 3.2307 -1.1233 0.9626
8.8017 3.9560 -1.1463 0.9619
8.6964 4.7074 -1.1746 0.9610
8.5691 5.4909 -1.2089 0.9598
8.4963 5.8971 -1.2285 0.9592
8.4170 6.3141 -1.2499 0.9585
8.3307 6.7432 -1.2731 0.9577
8.2285 7.1783 -1.2971 0.9570
7.4244 8.7082 -1.3593 0.9550
8.4716 2.0559 -1.2352 0.9654
8.4428 2.3816 -1.2429 0.9652
8.4095 2.7106 -1.2519 0.9649
8.3289 3.3803 -1.2736 0.9643
8.2812 3.7221 -1.2864 0.9640
8.2284 4.0693 -1.3007 0.9636
8.1063 4.7824 -1.3336 0.9627
7.9601 5.5249 -1.3729 0.9616
7.7871 6.3032 -1.4195 0.9603
7.6894 6.7080 -1.4458 0.9596
7.5778 7.1192 -1.4732 0.9589
7.0152 7.6390 -1.4695 0.9590
6.8870 8.0778 -1.5041 0.9580
7.9837 2.2521 -1.3666 0.9669
7.8655 3.1922 -1.3984 0.9662
7.8161 3.5130 -1.4117 0.9659
7.7012 4.1687 -1.4426 0.9651
7.6352 4.5045 -1.4604 0.9647
7.5632 4.8464 -1.4798 0.9642
7.3996 5.5509 -1.5239 0.9632
7.3072 5.9148 -1.5487 0.9626
7.2073 6.2875 -1.5756 0.9620
7.0993 6.6697 -1.6047 0.9613
6.9790 7.0587 -1.6352 0.9606
6.4194 7.5293 -1.6300 0.9607
7.5691 2.1351 -1.4782 0.9685
7.5336 2.4282 -1.4878 0.9683
7.4933 2.7240 -1.4986 0.9681
7.4480 3.0228 -1.5108 0.9678
7.3975 3.3249 -1.5244 0.9675
7.3416 3.6307 -1.5395 0.9672
7.2802 3.9408 -1.5560 0.9669
7.2130 4.2554 -1.5741 0.9665
7.1396 4.5750 -1.5939 0.9661
7.0600 4.9002 -1.6153 0.9656
6.8801 5.5691 -1.6637 0.9646
6.7792 5.9139 -1.6909 0.9640
6.6703 6.2666 -1.7203 0.9634
6.4246 6.9958 -1.7853 0.9621
6.2770 7.3623 -1.8185 0.9614
7.2236 1.7530 -1.5712 0.9701
7.0695 2.8692 -1.6127 0.9693
7.0184 3.1545 -1.6265 0.9690
6.9619 3.4430 -1.6417 0.9687
6.8998 3.7349 -1.6584 0.9684
6.5909 4.9443 -1.7416 0.9669
6.4971 5.2590 -1.7669 0.9664
6.3960 5.5796 -1.7941 0.9659
6.2871 5.9066 -1.8235 0.9653
6.1700 6.2404 -1.8550 0.9648
6.0442 6.5816 -1.8889 0.9641
5.9086 6.9302 -1.9251 0.9635
6.8798 1.6696 -1.6638 0.9713
6.8483 1.9318 -1.6723 0.9712
6.8120 2.1957 -1.6821 0.9710
6.7708 2.4614 -1.6932 0.9708
6.6731 2.9993 -1.7195 0.9704
6.3317 4.3947 -1.8114 0.9688
6.2450 4.6847 -1.8348 0.9684
6.1514 4.9792 -1.8600 0.9680
6.0507 5.2784 -1.8871 0.9675
5.8262 5.8927 -1.9476 0.9665
5.5681 6.5309 -2.0171 0.9653
6.5640 1.5929 -1.7489 0.9725
6.5324 1.8427 -1.7574 0.9723
6.4548 2.3465 -1.7783 0.9720
6.4086 2.6009 -1.7907 0.9718
6.3004 3.1158 -1.8199 0.9714
6.2382 3.3767 -1.8366 0.9711
6.1703 3.6402 -1.8549 0.9708
6.0965 3.9066 -1.8748 0.9705
6.0166 4.1760 -1.8963 0.9702
5.7376 5.0053 -1.9714 0.9690
5.6305 5.2897 -2.0003 0.9686
5.5156 5.5786 -2.0312 0.9681
5.3927 5.8722 -2.0643 0.9676
5.2613 6.1710 -2.0997 0.9670
6.2727 1.5223 -1.8273 0.9735
6.2412 1.7605 -1.8358 0.9734
6.1638 2.2407 -1.8566 0.9731
5.8806 3.4694 -1.9329 0.9720
5.8074 3.7213 -1.9526 0.9717
5.7282 3.9758 -1.9739 0.9714
5.6428 4.2330 -1.9969 0.9711
5.5509 4.4931 -2.0217 0.9707
5.4522 4.7564 -2.0483 0.9704
5.3465 5.0229 -2.0767 0.9700
5.2334 5.2931 -2.1072 0.9695
5.1125 5.5671 -2.1397 0.9691
4.9835 5.8451 -2.1745 0.9686
6.0029 1.4568 -1.9000 0.9745
5.9716 1.6845 -1.9084 0.9744
5.9355 1.9131 -1.9181 0.9742
5.8946 2.1428 -1.9291 0.9741
5.8488 2.3737 -1.9415 0.9739
5.7419 2.8396 -1.9703 0.9735
5.5413 3.5508 -2.0243 0.9728
5.4630 3.7917 -2.0454 0.9726
5.3786 4.0348 -2.0681 0.9723
5.0867 4.7788 -2.1467 0.9712
4.9755 5.0323 -2.1766 0.9708
4.8569 5.2887 -2.2086 0.9704
5.7210 1.6138 -1.9759 0.9753
5.6447 2.0520 -1.9964 0.9750
5.4935 2.7168 -2.0372 0.9745
5.1348 3.8520 -2.1337 0.9733
5.0456 4.0841 -2.1578 0.9730
4.9500 4.3182 -2.1835 0.9727
4.8478 4.5544 -2.2110 0.9724
4.6225 5.0335 -2.2717 0.9716
5.4872 1.5479 -2.0388 0.9761
5.3549 2.1733 -2.0667 0.9757
5.3171 2.3898 -2.0847 0.9755
5.2623 2.6025 -2.0994 0.9754
5.1374 3.0308 -2.1330 0.9750
5.0669 3.2468 -2.1520 0.9748
4.9908 3.4640 -2.1725 0.9745
4.9090 3.6825 -2.1945 0.9743
4.8213 3.9025 -2.2182 0.9740
4.7274 4.1241 -2.2434 0.9737
4.6272 4.3472 -2.2704 0.9734
4.5204 4.5720 -2.2992 0.9731
4.4067 4.7985 -2.3298 0.9727
5.2989 1.2859 -2.0896 0.9769
5.2684 1.4862 -2.0978 0.9768
5.1821 1.8838 -2.1130 0.9767
5.1496 2.0900 -2.1298 0.9765
4.9235 2.9047 -2.1907 0.9758
4.6990 3.5250 -2.2511 0.9752
4.6129 3.7339 -2.2743 0.9749
4.5209 3.9439 -2.2991 0.9746
4.4227 4.1550 -2.3255 0.9743
4.2071 4.5812 -2.3836 0.9737
5.0631 1.4282 -2.1531 0.9775
5.0286 1.6208 -2.1623 0.9774
4.7864 2.5909 -2.2276 0.9768
4.7234 2.7866 -2.2445 0.9766
4.5030 3.3780 -2.3039 0.9760
4.2324 3.9763 -2.3768 0.9752
4.1302 4.1773 -2.4043 0.9749
4.0217 4.3793 -2.4335 0.9746
3.9067 4.5822 -2.4645 0.9743
4.8993 1.1889 -2.1972 0.9782
4.8697 1.3737 -2.2051 0.9782
4.8358 1.5587 -2.2143 0.9781
4.7544 1.9296 -2.2362 0.9779
4.7068 2.1155 -2.2490 0.9777
4.6546 2.3019 -2.2631 0.9776
4.5976 2.4887 -2.2784 0.9774
4.3967 3.0517 -2.3325 0.9769
4.3195 3.2403 -2.3533 0.9767
4.2368 3.4294 -2.3756 0.9765
4.1486 3.6191 -2.3993 0.9763
3.7369 4.3830 -2.5102 0.9752
4.6538 1.5000 -2.2633 0.9787
4.4757 2.2134 -2.3112 0.9782
4.3590 2.5716 -2.3427 0.9779
4.2934 2.7511 -2.3603 0.9778
4.2228 2.9309 -2.3793 0.9776
4.0662 3.2913 -2.4215 0.9772
3.8882 3.6529 -2.4694 0.9768
3.7907 3.8340 -2.4957 0.9765
4.5430 1.1025 -2.2931 0.9794
4.5144 1.2734 -2.3008 0.9793
4.4444 1.6157 -2.3197 0.9792
4.3067 2.1298 -2.3567 0.9788
3.9056 3.1614 -2.4648 0.9779
3.8213 3.3336 -2.4875 0.9777
3.7317 3.5059 -2.5116 0.9774
3.6366 3.6781 -2.5372 0.9772
3.5360 3.8504 -2.5643 0.9770
4.3785 1.0626 -2.3374 0.9799
4.3504 1.2272 -2.3450 0.9798
4.3182 1.3918 -2.3537 0.9798
4.2817 1.5565 -2.3635 0.9797
4.2410 1.7212 -2.3744 0.9796
4.1960 1.8859 -2.3866 0.9795
4.0344 2.3801 -2.4301 0.9791
3.9715 2.5449 -2.4470 0.9790
3.7541 3.0387 -2.5056 0.9785
3.6717 3.2031 -2.5277 0.9783
3.4915 3.5314 -2.5763 0.9779
3.3934 3.6952 -2.6027 0.9776
3.2898 3.8586 -2.6306 0.9774
4.1945 1.1832 -2.3870 0.9803
4.1628 1.3418 -2.3955 0.9803
4.0871 1.6588 -2.4159 0.9801
3.9946 1.9755 -2.4408 0.9799
3.9419 2.1337 -2.4550 0.9798
3.8847 2.2919 -2.4704 0.9796
3.8231 2.4498 -2.4870 0.9795
3.6862 2.7652 -2.5238 0.9792
3.6106 2.9226 -2.5442 0.9790
3.5302 3.0797 -2.5658 0.9789
4.0729 0.9884 -2.4197 0.9808
4.0148 1.2940 -2.4354 0.9807
3.9797 1.4467 -2.4448 0.9806
3.9406 1.5993 -2.4553 0.9805
3.8974 1.7517 -2.4670 0.9805
3.8500 1.9040 -2.4797 0.9804
3.7983 2.0560 -2.4936 0.9802
3.5483 2.6618 -2.5610 0.9797
3.2248 3.2616 -2.6481 0.9790
