ply
format ascii 1.0
element vertex 345
property float32 x
property float32 y
property float32 z
property float32 I
end_header
19.0139 -44.1832 8.4815 0.8225
19.1523 -40.4244 7.8874 0.8339
19.2189 -33.9922 6.8854 0.8533
21.2046 -29.5280 6.4100 0.8627
19.8706 -41.9406 7.1097 0.8288
11.5662 -17.3978 3.2005 0.9189
12.5021 -17.4095 3.2835 0.9169
9.9845 -11.9771 2.3888 0.9389
8.1910 -17.2888 2.4912 0.9257
9.7823 -17.3018 2.5882 0.9230
11.5651 -17.3962 2.7203 0.9192
14.2631 -17.1096 2.9007 0.9141
6.0111 -17.3088 1.9675 0.9289
7.4637 -17.3436 2.0275 0.9269
9.0065 -17.3627 2.1004 0.9243
9.8225 -17.3729 2.1431 0.9229
12.2765 -17.0954 2.2600 0.9188
13.2413 -17.1018 2.3225 0.9167
14.2623 -17.1087 2.3918 0.9143
6.0164 -17.3243 1.5525 0.9290
6.7166 -17.3005 1.5710 0.9282
7.4630 -17.3422 1.5982 0.9270
8.2208 -17.3515 1.6254 0.9258
9.0058 -17.3613 1.6556 0.9245
9.6552 -17.0771 1.6607 0.9243
10.4383 -17.0005 1.6888 0.9230
11.3605 -17.0884 1.7371 0.9209
3.9783 -17.2978 1.1006 0.9313
5.3044 -17.2584 1.1196 0.9302
6.7287 -17.3317 1.1529 0.9282
7.4624 -17.3407 1.1706 0.9271
8.0854 -17.0658 1.1710 0.9271
8.8552 -17.0710 1.1925 0.9258
9.6548 -17.0763 1.2164 0.9244
12.2753 -17.0937 1.3050 0.9191
13.2399 -17.1001 1.3411 0.9170
14.2608 -17.1069 1.3811 0.9146
1.4106 -17.2074 0.6808 0.9332
2.0412 -17.2390 0.6845 0.9329
2.6811 -17.2805 0.6895 0.9324
3.9780 -17.2964 0.6998 0.9314
4.6427 -17.3046 0.7065 0.9308
5.3105 -17.2782 0.7127 0.9302
6.0155 -17.3215 0.7230 0.9292
8.0851 -17.0651 0.7446 0.9272
8.8548 -17.0702 0.7583 0.9259
9.6543 -17.0755 0.7735 0.9245
10.4373 -16.9989 0.7866 0.9233
11.3595 -17.0868 0.8091 0.9211
1.4152 -17.2637 0.2926 0.9331
2.6809 -17.2792 0.2954 0.9324
3.3245 -17.2871 0.2974 0.9320
5.2390 -17.0455 0.3012 0.9311
6.6212 -17.0547 0.3090 0.9294
9.6539 -17.0747 0.3313 0.9245
10.4368 -16.9981 0.3369 0.9233
11.3589 -17.0859 0.3466 0.9212
12.2741 -17.0920 0.3554 0.9193
13.8268 -16.5862 0.3648 0.9172
-0.4554 -17.2394 -0.0971 0.9333
0.7895 -17.2547 -0.0972 0.9332
2.0449 -17.2701 -0.0979 0.9328
3.2754 -17.0319 -0.0976 0.9330
7.3411 -17.0587 -0.1046 0.9284
11.3584 -17.0851 -0.1155 0.9212
12.0407 -16.7670 -0.1162 0.9207
12.0604 -15.5767 -0.1109 0.9242
12.0779 -14.4883 -0.1062 0.9273
-0.4553 -17.2382 -0.4856 0.9333
1.4150 -17.2611 -0.4877 0.9330
2.6418 -17.0270 -0.4852 0.9334
3.2753 -17.0312 -0.4883 0.9330
5.9207 -17.0486 -0.5082 0.9303
6.6206 -17.0532 -0.5151 0.9294
7.3407 -17.0579 -0.5229 0.9284
8.8536 -17.0679 -0.5414 0.9259
10.3950 -16.9299 -0.5594 0.9236
10.4909 -15.7803 -0.5336 0.9270
10.5764 -14.7279 -0.5106 0.9300
10.7215 -12.8612 -0.4715 0.9352
-0.4553 -17.2369 -0.8745 0.9333
0.1643 -17.0101 -0.8627 0.9341
0.7785 -17.0141 -0.8638 0.9341
1.3951 -17.0182 -0.8660 0.9339
3.2751 -17.0305 -0.8795 0.9329
3.9178 -17.0347 -0.8865 0.9324
7.3404 -17.0572 -0.9417 0.9283
8.0837 -17.0621 -0.9575 0.9272
8.8519 -17.0647 -0.9749 0.9259
9.0206 -15.9546 -0.9295 0.9292
9.1713 -14.9370 -0.8889 0.9322
9.3066 -13.9988 -0.8525 0.9349
9.5382 -12.3191 -0.7901 0.9395
9.6377 -11.5611 -0.7633 0.9415
-0.4492 -17.0053 -1.2473 0.9340
1.3950 -17.0175 -1.2519 0.9338
2.0155 -17.0215 -1.2568 0.9336
2.6416 -17.0257 -1.2633 0.9332
4.5713 -17.0383 -1.2935 0.9317
7.3401 -17.0564 -1.3615 0.9282
7.6240 -16.0918 -1.3056 0.9311
7.8377 -15.1095 -1.2480 0.9340
8.2035 -13.3607 -1.1496 0.9391
8.3605 -12.5758 -1.1073 0.9412
8.8874 -11.4785 -1.0644 0.9434
9.1623 -10.9909 -1.0492 0.9442
1.3950 -17.0168 -1.6392 0.9337
3.9175 -17.0333 -1.6780 0.9322
4.5711 -17.0376 -1.6935 0.9316
5.2127 -16.9600 -1.7034 0.9312
6.5578 -15.2387 -1.5927 0.9355
6.8056 -14.3644 -1.5260 0.9381
7.2330 -12.7929 -1.4109 0.9427
7.6476 -11.5035 -1.3262 0.9460
8.2526 -10.6587 -1.2942 0.9473
-0.4470 -16.9222 -2.0108 0.9341
0.1643 -17.0080 -2.0204 0.9338
2.0153 -17.0202 -2.0359 0.9333
3.2747 -17.0284 -2.0598 0.9325
3.9173 -17.0326 -2.0760 0.9320
4.5709 -17.0369 -2.0953 0.9314
4.9861 -16.2225 -2.0160 0.9339
5.3197 -15.3178 -1.9261 0.9368
5.8946 -13.6974 -1.7713 0.9417
6.1432 -12.9665 -1.7044 0.9438
6.3700 -12.2801 -1.6433 0.9458
6.5774 -11.6333 -1.5874 0.9476
7.0642 -11.5052 -1.6037 0.9471
0.1643 -17.0073 -2.4099 0.9336
0.7784 -17.0113 -2.4128 0.9335
2.0152 -17.0195 -2.4283 0.9331
2.6412 -17.0236 -2.4409 0.9328
3.2746 -17.0277 -2.4568 0.9323
4.7900 -13.7927 -2.0688 0.9427
5.3505 -12.4331 -1.9178 0.9468
6.0026 -11.5718 -1.8471 0.9487
6.3093 -11.1591 -1.8163 0.9495
6.6953 -10.0710 -1.7135 0.9523
7.1682 -8.5988 -1.5862 0.9558
-0.4469 -16.9208 -2.7885 0.9337
0.1643 -17.0066 -2.8018 0.9334
0.7784 -17.0106 -2.8053 0.9333
1.3948 -17.0147 -2.8124 0.9331
2.0108 -16.9822 -2.8172 0.9330
2.9420 -15.2983 -2.5664 0.9388
4.3538 -12.5365 -2.1862 0.9476
5.0170 -11.6583 -2.0909 0.9498
5.8219 -10.2971 -1.9487 0.9532
6.0200 -9.8046 -1.8954 0.9544
6.2036 -9.3313 -1.8459 0.9556
6.5316 -8.4359 -1.7576 0.9577
6.6782 -8.0109 -1.7181 0.9586
-0.4469 -16.9201 -3.1814 0.9334
0.1643 -17.0059 -3.1966 0.9331
0.7666 -16.7532 -3.1522 0.9340
2.2462 -14.4776 -2.7538 0.9421
3.0316 -13.1815 -2.5423 0.9464
3.3768 -12.5860 -2.4493 0.9483
4.4542 -11.4729 -2.3133 0.9511
4.9648 -10.4791 -2.1795 0.9539
5.1905 -10.0062 -2.1187 0.9552
5.5949 -9.1123 -2.0098 0.9574
5.7762 -8.6884 -1.9610 0.9584
6.1017 -7.8807 -1.8734 0.9602
6.2479 -7.4947 -1.8340 0.9611
0.1516 -15.6954 -3.3178 0.9378
1.6250 -13.7233 -2.9211 0.9451
2.0381 -13.1357 -2.8098 0.9471
2.4188 -12.5774 -2.7073 0.9490
2.7703 -12.0455 -2.6126 0.9507
3.1880 -11.8823 -2.6005 0.9509
3.5531 -11.5602 -2.5564 0.9518
4.3736 -10.1630 -2.3387 0.9558
5.5669 -7.7521 -2.0174 0.9617
5.7219 -7.3902 -1.9756 0.9625
5.8666 -7.0374 -1.9367 0.9632
-0.3891 -14.7315 -3.4634 0.9412
0.1365 -14.1337 -3.3219 0.9436
1.0676 -13.0238 -3.0712 0.9477
1.8794 -12.1130 -2.8809 0.9509
2.3114 -12.0191 -2.8765 0.9510
2.6671 -11.5968 -2.7967 0.9523
2.9896 -11.1428 -2.7114 0.9537
4.0708 -9.4593 -2.4203 0.9586
4.7087 -8.3282 -2.2485 0.9615
4.8945 -7.9715 -2.1984 0.9623
5.2312 -7.2846 -2.1078 0.9638
5.3836 -6.9532 -2.0667 0.9645
5.5262 -6.6291 -2.0283 0.9652
0.1241 -12.8423 -3.3253 0.9483
1.0064 -12.2771 -3.1894 0.9504
1.4211 -12.0015 -3.1291 0.9513
2.1438 -11.1476 -2.9392 0.9542
2.4687 -10.7338 -2.8517 0.9555
2.7723 -10.3328 -2.7700 0.9568
3.0563 -9.9438 -2.6935 0.9579
3.3221 -9.5659 -2.6219 0.9590
3.5711 -9.1984 -2.5548 0.9600
4.0234 -8.4921 -2.4330 0.9619
4.2287 -8.1519 -2.3778 0.9628
4.4213 -7.8198 -2.3259 0.9636
4.6020 -7.4951 -2.2772 0.9643
4.9308 -6.8662 -2.1887 0.9657
5.2201 -6.2619 -2.1108 0.9669
-0.3324 -12.5855 -3.5641 0.9490
0.1187 -12.2912 -3.4797 0.9502
1.6621 -10.7125 -3.0689 0.9559
2.2949 -9.9782 -2.8985 0.9583
3.1059 -8.9433 -2.6801 0.9614
3.3443 -8.6141 -2.6159 0.9623
3.5684 -8.2921 -2.5556 0.9632
3.7792 -7.9768 -2.4988 0.9640
3.9775 -7.6679 -2.4454 0.9647
4.1641 -7.3650 -2.3951 0.9654
4.3396 -7.0678 -2.3479 0.9661
4.6600 -6.4891 -2.2616 0.9673
4.9431 -5.9296 -2.1854 0.9684
-0.3090 -11.6993 -3.5997 0.9522
0.5025 -10.9814 -3.3812 0.9550
0.8717 -10.6340 -3.2817 0.9563
2.1422 -9.3142 -2.9396 0.9608
2.6717 -8.6925 -2.7970 0.9627
2.9138 -8.3902 -2.7318 0.9635
3.1421 -8.0934 -2.6704 0.9643
3.5604 -7.5149 -2.5577 0.9658
3.7519 -7.2328 -2.5062 0.9665
3.9324 -6.9552 -2.4575 0.9671
4.4144 -6.1471 -2.3277 0.9688
4.5568 -5.8854 -2.2894 0.9693
4.6909 -5.6271 -2.2533 0.9698
1.1357 -9.5918 -3.2107 0.9601
2.2657 -8.4448 -2.9064 0.9638
3.1675 -7.3603 -2.6635 0.9668
3.3630 -7.0982 -2.6109 0.9674
3.7224 -6.5838 -2.5141 0.9686
3.8875 -6.3314 -2.4696 0.9692
4.4602 -5.3503 -2.3154 0.9711
-0.2649 -10.0294 -3.5878 0.9583
0.7568 -9.2325 -3.3127 0.9614
1.0622 -8.9709 -3.2305 0.9624
2.1321 -7.9468 -2.9423 0.9657
2.5869 -7.4489 -2.8199 0.9671
2.9954 -6.9606 -2.7099 0.9683
3.1838 -6.7199 -2.6591 0.9689
3.3621 -6.4815 -2.6111 0.9695
3.8422 -5.7795 -2.4818 0.9709
4.1205 -5.3218 -2.4069 0.9718
4.2481 -5.0959 -2.3725 0.9722
-0.2468 -9.3465 -3.5830 0.9607
0.0881 -9.1139 -3.4928 0.9617
0.4064 -8.8814 -3.4071 0.9626
0.7090 -8.6490 -3.3256 0.9635
1.2700 -8.1858 -3.1745 0.9651
1.7769 -7.7259 -3.0380 0.9666
2.0116 -7.4975 -2.9748 0.9673
2.2346 -7.2704 -2.9148 0.9679
2.4464 -7.0444 -2.8577 0.9686
2.8388 -6.5965 -2.7520 0.9697
3.0202 -6.3746 -2.7032 0.9702
3.1924 -6.1542 -2.6568 0.9707
3.3557 -5.9352 -2.6128 0.9712
3.6574 -5.5014 -2.5316 0.9721
3.7964 -5.2866 -2.4942 0.9725
3.9279 -5.0731 -2.4587 0.9729
-0.2309 -8.7409 -3.5787 0.9629
0.0825 -8.5374 -3.4943 0.9638
0.3813 -8.3324 -3.4138 0.9646
0.6662 -8.1265 -3.3371 0.9654
1.1966 -7.7124 -3.1943 0.9668
1.6783 -7.2973 -3.0646 0.9682
2.8702 -6.0580 -2.7436 0.9714
3.0364 -5.8535 -2.6988 0.9719
3.1943 -5.6498 -2.6563 0.9723
3.3443 -5.4468 -2.6159 0.9728
3.7497 -4.8429 -2.5067 0.9739
3.8708 -4.6433 -2.4741 0.9742
-0.2166 -8.1997 -3.5748 0.9648
0.6276 -7.6553 -3.3475 0.9670
1.1300 -7.2834 -3.2122 0.9684
1.8023 -6.7176 -3.0312 0.9701
2.0063 -6.5277 -2.9762 0.9706
2.2009 -6.3375 -2.9238 0.9712
2.5634 -5.9567 -2.8262 0.9721
2.7320 -5.7663 -2.7808 0.9725
2.8924 -5.5760 -2.7376 0.9730
3.0452 -5.3859 -2.6965 0.9734
3.3285 -5.0067 -2.6202 0.9741
3.5840 -4.6289 -2.5514 0.9748
0.3383 -7.3924 -3.4254 0.9679
0.5925 -7.2280 -3.3569 0.9685
1.0694 -6.8924 -3.2285 0.9697
1.2927 -6.7217 -3.1684 0.9703
1.9061 -6.2017 -3.0032 0.9718
2.0929 -6.0263 -2.9529 0.9723
2.2712 -5.8502 -2.9049 0.9727
2.4416 -5.6735 -2.8590 0.9731
2.9067 -5.1411 -2.7337 0.9743
3.1813 -4.7852 -2.6598 0.9750
3.3085 -4.6072 -2.6255 0.9753
-0.1921 -7.2718 -3.5682 0.9681
0.0689 -7.1307 -3.4979 0.9687
0.3197 -6.9861 -3.4304 0.9693
0.5606 -6.8382 -3.3655 0.9699
0.7918 -6.6875 -3.3033 0.9704
1.0138 -6.5342 -3.2435 0.9710
1.9929 -5.7386 -2.9798 0.9733
2.1645 -5.5752 -2.9336 0.9737
2.4853 -5.2456 -2.8472 0.9745
2.9140 -4.7459 -2.7318 0.9755
3.1673 -4.4106 -2.6636 0.9761
3.2848 -4.2425 -2.6319 0.9764
-0.1815 -6.8702 -3.5654 0.9695
0.3027 -6.6144 -3.4350 0.9706
0.5313 -6.4809 -3.3734 0.9711
0.9626 -6.2045 -3.2573 0.9721
1.3610 -5.9175 -3.1500 0.9730
1.7279 -5.6219 -3.0512 0.9738
1.9002 -5.4715 -3.0048 0.9742
2.3745 -5.0118 -2.8771 0.9753
2.5191 -4.8563 -2.8381 0.9756
2.6573 -4.6999 -2.8009 0.9760
3.0349 -4.2262 -2.6992 0.9768
3.1491 -4.0672 -2.6685 0.9771
3.2576 -3.9077 -2.6393 0.9773
0.5043 -6.1519 -3.3807 0.9722
0.9154 -5.8998 -3.2700 0.9731
1.2962 -5.6360 -3.1674 0.9740
1.6482 -5.3625 -3.0727 0.9747
1.8138 -5.2227 -3.0281 0.9751
1.9727 -5.0811 -2.9853 0.9754
2.1250 -4.9379 -2.9443 0.9758
2.4107 -4.6472 -2.8673 0.9764
2.9104 -4.0528 -2.7328 0.9775
3.0212 -3.9021 -2.7029 0.9777
-0.1628 -6.1646 -3.5603 0.9719
0.0586 -6.0632 -3.5007 0.9724
0.4794 -5.8476 -3.3874 0.9733
0.6790 -5.7340 -3.3337 0.9737
0.8715 -5.6171 -3.2818 0.9741
1.7330 -4.9901 -3.0498 0.9759
2.3087 -4.4507 -2.8948 0.9771
2.4380 -4.3121 -2.8600 0.9774
2.5617 -4.1722 -2.8266 0.9776
2.7929 -3.8892 -2.7644 0.9781
2.9006 -3.7462 -2.7354 0.9784
