ply
format ascii 1.0
element vertex 353
property float32 x
property float32 y
property float32 z
property float32 I
end_header
37.9588 -2.3030 6.7055 0.8569
37.9143 1.8738 6.6935 0.8571
38.0948 3.2858 6.7421 0.8562
38.3779 4.7327 6.8183 0.8547
38.7702 6.2313 6.9240 0.8526
39.8069 12.5758 7.3610 0.8440
36.9754 13.1902 6.9222 0.8526
32.9568 13.1372 6.2559 0.8658
29.4218 12.9972 5.6715 0.8775
37.8846 23.8900 7.8974 0.8337
30.3631 -1.8422 4.6600 0.8842
30.3009 -0.7255 4.6433 0.8846
30.2927 0.3854 4.6410 0.8846
30.3383 1.4993 4.6533 0.8843
30.5952 3.7730 4.7225 0.8827
30.8112 4.9521 4.7807 0.8814
31.0904 6.1736 4.8559 0.8796
30.4319 8.4006 4.8364 0.8801
30.9174 9.7674 4.9671 0.8770
31.4951 11.2352 5.1227 0.8734
29.5713 13.0632 4.9525 0.8774
27.3553 13.3031 4.6599 0.8842
24.8466 13.2304 4.3124 0.8923
25.3740 2.1886 3.3165 0.9024
25.4664 3.1405 3.3414 0.9017
25.7567 5.1145 3.4195 0.8995
25.3052 7.9944 3.4558 0.8985
25.6323 9.1438 3.5439 0.8960
26.4608 11.6891 3.7670 0.8899
26.9799 13.1206 3.9068 0.8860
25.0150 13.3200 3.6905 0.8920
21.0161 13.2527 3.2354 0.9046
21.7231 -0.5201 2.3333 0.9163
21.7201 0.2763 2.3325 0.9163
21.7726 1.8780 2.3467 0.9158
21.8286 2.6919 2.3617 0.9153
21.9054 3.5207 2.3824 0.9146
22.0039 4.3693 2.4089 0.9137
22.1253 5.2430 2.4417 0.9126
22.4322 7.0868 2.5262 0.9097
21.6296 7.7159 2.4660 0.9118
21.8532 8.7111 2.5262 0.9097
22.4084 10.8974 2.6757 0.9046
22.8060 13.2388 2.8317 0.8993
17.7595 13.1108 2.3704 0.9150
7.6053 -0.4614 0.6450 0.9699
7.6093 0.6563 0.6465 0.9698
19.3776 5.3491 1.7017 0.9225
19.5989 6.9915 1.7615 0.9199
19.0028 8.3946 1.7586 0.9200
19.1750 9.3250 1.8050 0.9180
19.3712 10.3148 1.8578 0.9157
19.5945 11.3745 1.9179 0.9131
19.4614 13.2935 1.9951 0.9097
7.0702 0.6098 0.4400 0.9720
7.0749 0.8725 0.4420 0.9718
17.0646 3.3885 1.0788 0.9327
17.1569 4.7361 1.1037 0.9312
17.2158 5.4388 1.1196 0.9302
17.2841 6.1657 1.1379 0.9291
16.8746 8.9854 1.1855 0.9262
16.9982 9.8674 1.2188 0.9243
17.4737 12.8997 1.3468 0.9166
6.6014 0.0840 0.2603 0.9739
6.6021 0.3263 0.2606 0.9739
6.6035 0.5696 0.2613 0.9738
6.6059 0.8146 0.2624 0.9737
15.3499 3.0480 0.6171 0.9393
15.3972 4.2503 0.6298 0.9381
15.4274 4.8738 0.6380 0.9373
15.5019 6.1794 0.6580 0.9354
15.0833 9.5115 0.7031 0.9311
15.2473 11.2562 0.7473 0.9269
6.1950 -0.3759 0.1048 0.9755
6.1951 0.0788 0.1047 0.9755
6.1953 0.5344 0.1050 0.9754
13.9582 3.3077 0.2423 0.9442
13.9673 3.8556 0.2448 0.9437
13.9901 4.9907 0.2509 0.9423
14.0198 6.1933 0.2589 0.9405
13.9586 7.4327 0.2671 0.9387
13.4476 7.8063 0.2627 0.9397
13.4976 9.2198 0.2761 0.9367
5.8519 -0.3551 -0.0330 0.9768
5.8520 -0.1401 -0.0330 0.9769
5.8519 0.2892 -0.0330 0.9768
5.8517 0.5047 -0.0331 0.9768
12.7858 2.5389 -0.0734 0.9492
12.7837 3.0294 -0.0740 0.9488
12.7811 3.5282 -0.0747 0.9483
12.7748 4.5571 -0.0764 0.9472
12.7709 5.0907 -0.0774 0.9465
12.7666 5.6397 -0.0786 0.9457
12.7617 6.2061 -0.0799 0.9448
12.7562 6.7924 -0.0814 0.9438
12.7243 7.3864 -0.0828 0.9428
12.1643 8.3091 -0.0829 0.9428
5.5457 -0.1328 -0.1562 0.9780
5.5458 0.0706 -0.1562 0.9781
5.5431 0.6836 -0.1573 0.9779
11.8004 2.3432 -0.3388 0.9530
11.7913 2.7942 -0.3412 0.9527
11.7679 3.7177 -0.3475 0.9518
11.7535 4.1928 -0.3514 0.9513
11.6982 5.6889 -0.3663 0.9493
11.6498 6.7627 -0.3793 0.9475
11.6022 7.3163 -0.3862 0.9466
11.0704 7.5619 -0.3775 0.9478
11.0377 8.1485 -0.3863 0.9466
5.2687 -0.3197 -0.2677 0.9791
5.2696 -0.1262 -0.2673 0.9791
5.2690 0.2604 -0.2675 0.9791
5.2676 0.4543 -0.2681 0.9790
5.2653 0.6493 -0.2690 0.9790
5.2622 0.8457 -0.2703 0.9789
5.2583 1.0441 -0.2719 0.9788
10.9409 2.5926 -0.5702 0.9560
10.9241 3.0156 -0.5747 0.9556
10.9047 3.4450 -0.5800 0.9552
10.8824 3.8821 -0.5860 0.9548
10.8289 4.7837 -0.6004 0.9537
10.7973 5.2508 -0.6089 0.9531
10.7621 5.7307 -0.6183 0.9523
10.1140 7.4666 -0.6376 0.9509
5.0187 -0.3045 -0.3687 0.9800
5.0198 -0.1202 -0.3682 0.9801
5.0200 0.0638 -0.3681 0.9801
5.0191 0.2480 -0.3685 0.9800
10.2033 2.4179 -0.7688 0.9588
10.1823 2.8108 -0.7745 0.9585
10.1579 3.2091 -0.7811 0.9582
10.0984 4.0254 -0.7971 0.9573
10.0630 4.4453 -0.8066 0.9568
10.0235 4.8746 -0.8172 0.9563
9.8785 6.2294 -0.8563 0.9542
9.7460 7.1949 -0.8882 0.9526
4.8004 -0.2913 -0.4617 0.9809
4.8019 0.0611 -0.4610 0.9809
4.8009 0.2373 -0.4615 0.9809
4.7987 0.4139 -0.4624 0.9808
4.7953 0.5914 -0.4639 0.9808
4.7848 0.9501 -0.4683 0.9806
9.5047 3.0027 -0.9570 0.9607
9.4728 3.3792 -0.9656 0.9604
9.3962 4.1508 -0.9862 0.9596
9.3015 4.9529 -1.0117 0.9585
4.5995 -0.2791 -0.5474 0.9816
4.6001 0.2273 -0.5471 0.9816
4.5937 0.5665 -0.5498 0.9815
4.5884 0.7375 -0.5520 0.9815
4.5818 0.9098 -0.5549 0.9814
4.5737 1.0838 -0.5583 0.9812
8.9588 2.4730 -1.1040 0.9633
8.8100 3.8918 -1.1441 0.9619
8.5116 5.8140 -1.2244 0.9593
4.5434 -0.2757 -0.6449 0.9818
4.5444 0.5604 -0.6488 0.9817
4.5466 0.9028 -0.6568 0.9814
4.5481 1.0778 -0.6623 0.9813
8.4150 2.6585 -1.2504 0.9650
8.3781 2.9887 -1.2604 0.9647
8.2383 4.0064 -1.2980 0.9637
8.1814 4.3565 -1.3133 0.9632
8.1189 4.7130 -1.3301 0.9628
7.9761 5.4482 -1.3686 0.9617
4.5726 -0.1095 -0.7535 0.9816
4.5729 0.2260 -0.7542 0.9816
4.5734 0.3945 -0.7562 0.9816
4.5742 0.5641 -0.7593 0.9815
4.5767 0.9088 -0.7687 0.9813
7.9886 2.2052 -1.3652 0.9670
7.9165 2.8240 -1.3847 0.9665
7.8251 3.4567 -1.4093 0.9659
7.7717 3.7794 -1.4237 0.9656
7.7128 4.1069 -1.4395 0.9652
7.6483 4.4398 -1.4569 0.9648
7.5012 5.1238 -1.4965 0.9638
4.6027 0.0586 -0.8652 0.9814
4.6030 0.2275 -0.8662 0.9814
4.6046 0.5678 -0.8720 0.9813
7.5741 2.0908 -1.4769 0.9685
7.5395 2.3819 -1.4862 0.9683
7.3521 3.5754 -1.5366 0.9673
7.2263 4.1948 -1.5705 0.9666
7.1546 4.5117 -1.5898 0.9662
7.0767 4.8338 -1.6108 0.9657
4.6336 -0.1109 -0.9797 0.9812
4.6335 0.0590 -0.9795 0.9812
4.6338 0.2290 -0.9807 0.9812
4.6356 0.5716 -0.9873 0.9811
4.6371 0.7453 -0.9928 0.9810
7.1624 2.2627 -1.5877 0.9698
7.0776 2.8213 -1.6106 0.9693
7.0277 3.1045 -1.6240 0.9691
6.9725 3.3908 -1.6389 0.9688
6.7731 4.2711 -1.6926 0.9678
6.6096 4.8794 -1.7366 0.9670
4.6651 -0.1117 -1.0967 0.9810
4.6650 0.0594 -1.0965 0.9810
4.6674 0.5756 -1.1052 0.9809
4.6712 0.9275 -1.1193 0.9806
6.8180 2.1540 -1.6805 0.9710
6.7779 2.4179 -1.6913 0.9709
6.6825 2.9520 -1.7170 0.9704
6.5661 3.4963 -1.7483 0.9699
6.4995 3.7729 -1.7662 0.9696
6.3485 4.3365 -1.8069 0.9689
6.2636 4.6240 -1.8298 0.9685
4.6979 -0.2851 -1.2186 0.9807
4.6974 -0.1125 -1.2166 0.9808
4.6973 0.0597 -1.2163 0.9808
4.6986 0.4053 -1.2211 0.9807
4.6999 0.5796 -1.2261 0.9806
6.5682 1.5565 -1.7477 0.9725
6.5376 1.8046 -1.7560 0.9724
6.5021 2.0542 -1.7655 0.9722
6.3665 2.8124 -1.8021 0.9717
6.3110 3.0691 -1.8170 0.9714
6.1837 3.5896 -1.8513 0.9709
6.1115 3.8539 -1.8707 0.9706
6.0333 4.1212 -1.8918 0.9703
4.7311 -0.2870 -1.3418 0.9805
4.7304 0.0602 -1.3392 0.9805
4.7308 0.2338 -1.3409 0.9805
4.7380 0.9408 -1.3675 0.9801
6.2770 1.4875 -1.8262 0.9735
6.2463 1.7242 -1.8344 0.9734
6.2110 1.9622 -1.8439 0.9733
6.1708 2.2013 -1.8547 0.9731
6.0757 2.6840 -1.8804 0.9728
6.0205 2.9278 -1.8952 0.9726
5.9600 3.1736 -1.9115 0.9723
5.8940 3.4214 -1.9293 0.9721
5.8223 3.6715 -1.9486 0.9718
4.7644 0.0606 -1.4655 0.9803
4.7660 0.4111 -1.4713 0.9802
4.7676 0.5879 -1.4775 0.9801
4.7728 0.9477 -1.4967 0.9798
6.0071 1.4235 -1.8988 0.9745
5.9016 2.1053 -1.9272 0.9741
5.8569 2.3347 -1.9393 0.9740
5.8072 2.5653 -1.9527 0.9738
5.6270 3.2664 -2.0012 0.9731
5.8434 -0.1399 -1.9429 0.9757
5.8440 0.0743 -1.9428 0.9757
5.8404 0.2886 -1.9437 0.9757
5.8323 0.5031 -1.9459 0.9756
5.7819 1.1481 -1.9595 0.9755
5.7562 1.3641 -1.9664 0.9754
5.6516 2.0161 -1.9946 0.9750
5.5581 2.4553 -2.0198 0.9747
5.3798 3.1230 -2.0678 0.9741
5.2341 3.5753 -2.1070 0.9736
5.6091 0.0714 -2.0060 0.9765
5.5476 1.1016 -2.0226 0.9763
5.5221 1.3086 -2.0294 0.9762
5.4922 1.5161 -2.0375 0.9761
5.4186 1.9330 -2.0573 0.9759
5.3261 2.3528 -2.0822 0.9756
5.2726 2.5641 -2.0966 0.9754
5.2140 2.7764 -2.1124 0.9752
5.0812 3.2042 -2.1482 0.9748
5.0067 3.4199 -2.1682 0.9746
5.3883 -0.1290 -2.0655 0.9772
5.3853 0.2661 -2.0663 0.9772
5.3775 0.4638 -2.0684 0.9771
5.3489 0.8597 -2.0761 0.9771
5.3281 1.0580 -2.0817 0.9770
5.2393 1.6552 -2.1056 0.9767
4.7949 3.2753 -2.2253 0.9754
5.1765 -0.3141 -2.1225 0.9778
5.1820 0.0659 -2.1210 0.9779
5.1587 0.6362 -2.1273 0.9778
5.1424 0.8265 -2.1317 0.9777
5.0971 1.2079 -2.1439 0.9776
5.0343 1.5904 -2.1608 0.9774
4.9536 1.9746 -2.1825 0.9772
4.8544 2.3607 -2.2093 0.9769
4.7976 2.5546 -2.2246 0.9768
4.5971 3.1401 -2.2785 0.9762
4.9815 -0.3023 -2.1750 0.9785
4.9863 -0.1194 -2.1737 0.9785
4.9869 0.0634 -2.1736 0.9785
4.9834 0.2463 -2.1745 0.9785
4.9758 0.4292 -2.1766 0.9784
4.9277 0.9785 -2.1895 0.9783
4.9033 1.1619 -2.1961 0.9783
4.8745 1.3456 -2.2038 0.9782
4.8414 1.5295 -2.2128 0.9781
4.8039 1.7137 -2.2228 0.9780
4.7620 1.8982 -2.2341 0.9779
4.6644 2.2683 -2.2604 0.9776
4.6085 2.4539 -2.2755 0.9775
4.5479 2.6400 -2.2918 0.9773
4.4823 2.8265 -2.3094 0.9771
4.4117 3.0135 -2.3285 0.9770
4.7972 -0.2911 -2.2246 0.9790
4.8019 -0.1150 -2.2234 0.9791
4.7642 0.7657 -2.2336 0.9790
4.7442 0.9420 -2.2389 0.9789
4.7202 1.1185 -2.2454 0.9788
4.6919 1.2952 -2.2530 0.9788
4.6224 1.6490 -2.2717 0.9786
4.5355 2.0036 -2.2951 0.9784
4.4853 2.1812 -2.3086 0.9783
4.4305 2.3591 -2.3234 0.9781
4.3710 2.5373 -2.3394 0.9780
4.2375 2.8945 -2.3754 0.9776
4.6226 -0.2805 -2.2717 0.9796
4.6279 0.0588 -2.2703 0.9796
4.6170 0.3982 -2.2732 0.9796
4.6056 0.5679 -2.2763 0.9795
4.5468 1.0775 -2.2921 0.9794
4.5190 1.2475 -2.2996 0.9793
4.4870 1.4175 -2.3082 0.9793
4.4508 1.5877 -2.3180 0.9792
4.3161 2.0989 -2.3542 0.9788
4.2623 2.2696 -2.3687 0.9787
4.2040 2.4404 -2.3844 0.9786
4.1410 2.6113 -2.4014 0.9784
4.4619 0.0568 -2.3149 0.9801
4.4513 0.3839 -2.3178 0.9801
4.4055 0.8748 -2.3301 0.9800
4.3549 1.2022 -2.3438 0.9798
4.2879 1.5296 -2.3618 0.9797
4.2482 1.6934 -2.3725 0.9796
4.1558 2.0210 -2.3974 0.9794
4.1031 2.1848 -2.4116 0.9793
4.0459 2.3486 -2.4270 0.9791
3.9179 2.6762 -2.4614 0.9788
3.8469 2.8399 -2.4806 0.9787
4.2989 -0.2608 -2.3588 0.9805
4.2935 0.3703 -2.3603 0.9805
4.2824 0.5281 -2.3633 0.9805
4.2486 0.8436 -2.3724 0.9804
4.2257 1.0014 -2.3785 0.9804
4.1332 1.4744 -2.4035 0.9802
4.0036 1.9470 -2.4384 0.9799
3.8960 2.2616 -2.4673 0.9797
3.8356 2.4187 -2.4836 0.9795
3.7013 2.7324 -2.5198 0.9792
4.1483 -0.2517 -2.3994 0.9810
4.1527 -0.0994 -2.3982 0.9810
4.1430 0.3574 -2.4008 0.9810
4.0989 0.8139 -2.4127 0.9809
4.0765 0.9660 -2.4187 0.9808
4.0502 1.1180 -2.4258 0.9808
3.9857 1.4218 -2.4432 0.9806
3.8588 1.8766 -2.4774 0.9804
3.8083 2.0278 -2.4910 0.9803
3.6944 2.3297 -2.5216 0.9800
3.6310 2.4802 -2.5387 0.9799
3.5631 2.6304 -2.5570 0.9798
