ply
format ascii 1.0
element vertex 212
property float32 x
property float32 y
property float32 z
property float32 I
end_header
-5.3491 -13.4886 1.8896 0.9431
-4.7634 -15.1476 2.0678 0.9380
-5.3006 -13.3663 1.5440 0.9438
-5.0202 -14.1419 1.6114 0.9414
-4.7270 -15.0317 1.6921 0.9386
-4.3919 -15.9781 1.7794 0.9355
-4.9732 -14.0094 1.2584 0.9421
-4.3400 -15.7895 1.3862 0.9364
-4.9345 -13.9005 0.9147 0.9426
-4.3128 -15.6905 1.0091 0.9369
-4.8972 -13.7956 0.5772 0.9431
-4.2663 -15.5212 0.6347 0.9376
-4.2078 -15.3085 0.2682 0.9385
-4.7952 -13.5081 -0.0807 0.9443
-4.5075 -14.3337 -0.0846 0.9417
-4.1795 -15.2056 -0.0888 0.9389
-17.3022 -20.3166 -0.7514 0.8987
-4.7545 -13.3935 -0.4002 0.9447
-4.4709 -14.2172 -0.4197 0.9421
-3.7804 -16.0150 -0.4633 0.9363
-17.2178 -20.2173 -1.3467 0.8991
-16.1429 -22.0210 -1.3847 0.8964
-4.4184 -14.0503 -0.7470 0.9427
-15.9705 -21.7858 -2.5933 0.8971
-4.0268 -14.6499 -1.4586 0.9408
-3.9634 -45.9308 -4.4260 0.8309
-6.9796 -43.5420 -5.2382 0.8373
-4.7791 -38.8169 -4.6456 0.8542
-3.0192 -34.9897 -4.1717 0.8681
-16.8246 -19.7556 -3.6767 0.9005
-12.6595 -46.0565 -6.7677 0.8245
-9.6667 -40.9512 -5.9618 0.8437
-7.2927 -36.8500 -5.3225 0.8592
-5.3660 -33.4755 -4.8037 0.8720
-3.7731 -30.6442 -4.3747 0.8827
-12.0009 -38.1626 -6.5904 0.8503
-9.5342 -34.6863 -5.9261 0.8643
-7.5008 -31.7756 -5.3785 0.8760
-4.3531 -27.1570 -4.5309 0.8945
-3.1134 -25.2862 -4.1971 0.9019
-16.9647 -38.6118 -7.9271 0.8423
-13.9602 -35.2027 -7.1180 0.8572
-11.4799 -32.3390 -6.4501 0.8696
-7.6352 -27.7776 -5.4148 0.8894
-6.1194 -25.9237 -5.0066 0.8973
-3.6576 -22.8179 -4.3436 0.9102
-1.7520 -20.3037 -3.8305 0.9204
-21.8513 -37.8758 -9.2430 0.8363
-18.4004 -34.7611 -8.3137 0.8515
-13.1096 -29.8375 -6.8890 0.8753
-9.2634 -26.0951 -5.8532 0.8930
-7.7149 -24.5334 -5.4362 0.9002
-6.3580 -23.1313 -5.0708 0.9066
-3.4728 -14.7120 -3.1953 0.9401
-1.5340 -17.7775 -3.7718 0.9296
-16.7083 -28.9612 -7.8581 0.8716
-7.7522 -21.8383 -5.4463 0.9092
-2.7629 -17.2366 -4.1027 0.9308
-2.0307 -16.4931 -3.9055 0.9340
-27.0405 -31.7513 -10.7983 0.8417
-19.9157 -27.1676 -8.7218 0.8701
-15.3808 -24.5485 -7.5006 0.8872
-13.4976 -23.3959 -6.9934 0.8944
-11.8203 -22.3302 -6.5418 0.9009
-7.7554 -19.5565 -5.4471 0.9167
-3.4422 -14.5824 -3.8794 0.9400
-2.4577 -15.3324 -4.0205 0.9379
-1.8160 -14.7494 -3.8477 0.9404
-29.3495 -27.6757 -11.4201 0.8456
-23.4920 -25.6313 -9.8427 0.8654
-18.7519 -23.7173 -8.5593 0.8819
-14.2969 -21.0717 -7.2087 0.8996
-12.7270 -20.3130 -6.7859 0.9052
-8.8154 -18.2303 -5.7326 0.9193
-6.7355 -16.9845 -5.1725 0.9269
-4.9802 -15.8370 -4.6998 0.9333
-4.2045 -15.2964 -4.4909 0.9362
-3.4469 -14.6022 -4.2474 0.9395
-2.8249 -14.2746 -4.1194 0.9413
-1.6406 -13.3242 -3.8005 0.9457
-1.1108 -12.8730 -3.6578 0.9477
-22.9134 -21.6066 -9.6869 0.8765
-20.8314 -21.1289 -9.1262 0.8832
-18.9132 -20.6356 -8.6096 0.8895
-15.5160 -19.6246 -7.6948 0.9006
-13.9893 -19.0832 -7.2778 0.9057
-10.8338 -17.2913 -6.2761 0.9182
-5.9437 -14.9881 -4.9593 0.9347
-5.1661 -14.5530 -4.7499 0.9374
-3.7686 -13.7107 -4.3735 0.9422
-3.1700 -13.4289 -4.2440 0.9439
-2.0954 -13.0723 -4.0721 0.9461
-18.7453 -17.6763 -8.5644 0.8971
-13.1869 -16.6787 -7.0676 0.9143
-12.0041 -16.3751 -6.7491 0.9180
-7.9658 -15.0486 -5.6598 0.9307
-6.3068 -14.3544 -5.2117 0.9360
-4.1918 -13.3300 -4.6449 0.9428
-2.9862 -12.6505 -4.3206 0.9467
-1.4348 -11.6533 -3.9029 0.9517
-14.6480 -14.8572 -7.4611 0.9152
-12.4585 -14.6289 -6.8715 0.9216
-9.5651 -14.0976 -6.0923 0.9302
-8.6989 -13.8840 -5.8590 0.9328
-7.8788 -13.6567 -5.6382 0.9352
-6.3686 -13.1702 -5.2315 0.9397
-5.6743 -12.9148 -5.0445 0.9418
-5.0179 -12.6534 -4.8678 0.9438
-4.3974 -12.3874 -4.7007 0.9457
-3.8107 -12.1180 -4.5427 0.9475
-3.2561 -11.8460 -4.3933 0.9491
-2.2359 -11.2980 -4.1186 0.9523
-0.9039 -10.4752 -3.7599 0.9563
-13.6598 -12.8808 -7.1950 0.9227
-10.9290 -12.8330 -6.4596 0.9303
-10.0876 -12.7588 -6.2330 0.9327
-5.1457 -11.7116 -4.9022 0.9467
-4.5653 -11.5122 -4.7459 0.9483
-4.0131 -11.3051 -4.5972 0.9499
-2.9887 -10.8731 -4.3213 0.9528
-2.5140 -10.6502 -4.1935 0.9542
-1.2267 -9.9630 -3.8468 0.9579
-0.8396 -9.7301 -3.7426 0.9590
-11.2112 -11.3713 -6.5356 0.9333
-9.7155 -11.4081 -6.1328 0.9373
-9.0026 -11.3865 -5.9408 0.9392
-7.6501 -11.2753 -5.5766 0.9428
-6.3969 -11.0881 -5.2391 0.9462
-4.7002 -10.6976 -4.7822 0.9508
-3.2113 -10.2120 -4.3813 0.9548
-2.7582 -10.0347 -4.2593 0.9560
-2.3254 -9.8513 -4.1427 0.9572
-1.9123 -9.6629 -4.0315 0.9583
-1.1418 -9.2733 -3.8240 0.9604
-0.7829 -9.0735 -3.7273 0.9614
-10.6648 -10.0566 -6.3884 0.9380
-10.0053 -10.1482 -6.2108 0.9397
-9.3593 -10.2116 -6.0369 0.9413
-8.7283 -10.2490 -5.8670 0.9430
-8.1137 -10.2621 -5.7014 0.9445
-7.5162 -10.2532 -5.5406 0.9460
-5.8333 -10.1111 -5.0874 0.9503
-4.8051 -9.9371 -4.8105 0.9530
-3.8518 -9.7129 -4.5538 0.9554
-3.4026 -9.5852 -4.4328 0.9566
-2.9712 -9.4485 -4.3166 0.9577
-2.1604 -9.1521 -4.0983 0.9598
-1.0666 -8.6624 -3.8037 0.9626
-0.7326 -8.4899 -3.7138 0.9635
-9.5834 -9.0369 -6.0972 0.9436
-8.4575 -9.2277 -5.7940 0.9463
-7.9088 -9.2867 -5.6463 0.9477
-7.3714 -9.3233 -5.5015 0.9490
-6.3343 -9.3360 -5.2223 0.9515
-5.8362 -9.3149 -5.0881 0.9527
-4.4289 -9.1589 -4.7091 0.9561
-3.5651 -8.9899 -4.4765 0.9583
-3.1555 -8.8893 -4.3663 0.9593
-2.0146 -8.5344 -4.0590 0.9621
-1.6626 -8.4012 -3.9642 0.9630
-1.3243 -8.2619 -3.8731 0.9638
-0.9994 -8.1171 -3.7856 0.9646
-0.6875 -7.9673 -3.7016 0.9654
-7.7000 -8.4012 -5.5900 0.9505
-6.7416 -8.5268 -5.3320 0.9527
-5.3721 -8.5742 -4.9632 0.9559
-4.5130 -8.5257 -4.7318 0.9579
-4.1010 -8.4808 -4.6208 0.9589
-3.7010 -8.4235 -4.5131 0.9598
-3.3132 -8.3548 -4.4087 0.9607
-2.9378 -8.2757 -4.3076 0.9616
-2.5745 -8.1870 -4.2098 0.9625
-2.2235 -8.0895 -4.1153 0.9633
-1.8847 -7.9841 -4.0240 0.9641
-1.5577 -7.8714 -3.9360 0.9649
-1.2426 -7.7521 -3.8511 0.9656
-0.9391 -7.6268 -3.7694 0.9663
-0.6468 -7.4961 -3.6907 0.9670
-7.0540 -7.6964 -5.4161 0.9540
-6.2001 -7.8419 -5.1861 0.9560
-4.5737 -7.9278 -4.7482 0.9596
-4.1883 -7.9124 -4.6444 0.9605
-3.0901 -7.7921 -4.3486 0.9629
-2.7441 -7.7302 -4.2555 0.9637
-1.7681 -7.4904 -3.9926 0.9659
-1.4634 -7.3946 -3.9106 0.9666
-0.8844 -7.1833 -3.7547 0.9679
-0.6100 -7.0688 -3.6808 0.9685
-7.2728 -6.8580 -5.4750 0.9554
-6.8839 -6.9822 -5.3703 0.9563
-6.4962 -7.0878 -5.2659 0.9571
-5.7290 -7.2460 -5.0593 0.9587
-5.3515 -7.3002 -4.9576 0.9596
-4.9793 -7.3389 -4.8574 0.9604
-4.6131 -7.3628 -4.7588 0.9611
-2.8908 -7.2895 -4.2949 0.9649
-2.5707 -7.2416 -4.2088 0.9656
-2.2592 -7.1844 -4.1249 0.9662
-1.9566 -7.1185 -4.0434 0.9669
-1.1019 -6.8745 -3.8132 0.9687
-0.8347 -6.7797 -3.7413 0.9693
-6.7075 -6.3250 -5.3228 0.9583
-3.9687 -6.8791 -4.5852 0.9640
-3.6448 -6.8856 -4.4980 0.9647
-3.0158 -6.8641 -4.3286 0.9660
-2.7115 -6.8375 -4.2467 0.9666
-2.4142 -6.8010 -4.1666 0.9672
-2.1244 -6.7555 -4.0886 0.9678
-1.8420 -6.7014 -4.0125 0.9684
-1.5672 -6.6393 -3.9385 0.9690
-1.3001 -6.5698 -3.8666 0.9695
-0.5455 -6.3217 -3.6634 0.9711
