ply
format ascii 1.0
element vertex 261
property float32 x
property float32 y
property float32 z
property float32 I
end_header
34.5137 32.7638 8.3911 0.8242
29.7740 32.7288 7.8017 0.8355
21.5039 34.6793 7.1951 0.8473
13.0377 30.1151 5.7864 0.8752
11.8208 30.3019 5.7352 0.8762
9.2411 30.0121 5.5371 0.8803
8.0732 30.0959 5.4943 0.8811
7.2350 31.5446 5.7066 0.8768
11.9681 30.6794 5.0449 0.8752
15.9902 18.9251 3.2264 0.9049
10.9109 31.3096 4.3176 0.8748
9.3927 30.5044 4.1564 0.8792
24.9841 23.7174 3.6992 0.8706
16.7702 18.4345 2.6761 0.9046
20.8196 24.6409 3.4640 0.8783
9.6394 13.2682 1.7611 0.9362
15.3146 24.6980 3.1206 0.8897
11.6102 33.3162 3.7886 0.8677
9.5850 31.1288 3.4975 0.8772
13.8502 13.1480 1.6166 0.9262
13.3660 13.6530 1.6174 0.9262
16.5862 18.2322 2.0865 0.9058
9.6815 13.3262 1.3944 0.9360
11.6517 33.4355 2.9973 0.8675
13.0499 13.3300 1.1568 0.9280
12.0288 13.2225 1.1085 0.9309
19.8035 23.4382 1.9027 0.8843
16.0426 23.8736 1.7836 0.8911
15.2473 26.7270 1.9081 0.8840
12.2536 13.4697 0.7180 0.9297
11.2934 13.3662 0.6900 0.9323
10.3799 13.2394 0.6634 0.9349
9.6999 13.3513 0.6507 0.9361
15.9632 23.7554 1.1285 0.8917
14.8368 23.9272 1.1102 0.8934
10.0973 17.6996 0.8035 0.9217
15.2418 43.7373 1.8263 0.8308
11.3853 13.4749 0.2980 0.9319
10.4719 13.3568 0.2867 0.9344
9.7633 13.4387 0.2806 0.9357
9.9837 16.1006 0.3200 0.9270
9.9954 19.1149 0.3644 0.9173
9.8618 20.6688 0.3868 0.9125
9.8813 25.3299 0.4593 0.8969
10.0281 37.3831 0.6538 0.8566
10.4166 45.4158 0.7871 0.8299
12.1228 11.5082 -0.0941 0.9353
12.1103 12.3703 -0.0975 0.9331
12.0965 13.2969 -0.1012 0.9306
11.3622 13.4477 -0.0991 0.9320
9.8657 13.5796 -0.0945 0.9351
10.1649 16.3928 -0.1086 0.9257
10.2204 19.5451 -0.1242 0.9156
10.1286 21.2281 -0.1324 0.9102
9.9948 25.6209 -0.1548 0.8958
10.2158 29.3150 -0.1748 0.8832
10.2591 33.3180 -0.1963 0.8698
10.7949 11.8662 -0.4517 0.9378
10.7333 12.7033 -0.4683 0.9356
10.4058 13.2724 -0.4749 0.9347
9.9703 13.7236 -0.4776 0.9344
10.1965 15.1737 -0.5148 0.9295
10.2719 21.5283 -0.6717 0.9090
9.4236 30.6048 -0.9017 0.8797
9.1015 33.9289 -0.9891 0.8689
9.9012 9.3992 -0.6924 0.9468
9.8268 10.0378 -0.7124 0.9453
9.7450 10.7121 -0.7344 0.9436
9.6550 11.4271 -0.7587 0.9418
9.5556 12.1880 -0.7854 0.9399
9.2850 14.9762 -0.8941 0.9319
9.1559 16.0494 -0.9371 0.9287
9.0430 17.2935 -0.9897 0.9248
8.8846 18.6207 -1.0463 0.9207
8.6639 20.0124 -1.1059 0.9164
8.4125 21.5646 -1.1739 0.9115
8.1236 23.3113 -1.2519 0.9059
7.7895 25.2975 -1.3424 0.8994
7.3987 27.5813 -1.4482 0.8919
9.0679 8.6082 -0.9168 0.9511
8.7717 10.3816 -0.9965 0.9469
8.6535 11.0374 -1.0284 0.9453
8.5237 11.7325 -1.0633 0.9435
8.2235 13.2620 -1.1442 0.9393
7.9535 15.2113 -1.2588 0.9335
7.5730 17.4438 -1.3883 0.9266
7.3034 18.7214 -1.4734 0.9226
6.9913 20.0619 -1.5577 0.9183
6.2306 23.2268 -1.7633 0.9081
8.2619 8.4392 -1.1338 0.9537
8.1529 8.9620 -1.1632 0.9525
8.0342 9.5088 -1.1951 0.9512
7.9048 10.0824 -1.2300 0.9498
7.6088 11.3229 -1.3097 0.9467
6.8643 14.3870 -1.5305 0.9380
6.3893 16.3786 -1.6878 0.9318
5.7787 18.7672 -1.8852 0.9241
5.3791 20.0524 -1.9932 0.9200
7.5338 8.2815 -1.3299 0.9559
7.4087 8.7685 -1.3636 0.9548
7.2728 9.2763 -1.4002 0.9536
6.7893 10.9492 -1.5304 0.9494
6.3897 12.2195 -1.6380 0.9460
5.9133 13.6590 -1.7680 0.9418
5.6751 14.5477 -1.8549 0.9390
4.7109 17.5689 -2.1613 0.9293
7.2708 7.4269 -1.4726 0.9589
6.8708 8.1319 -1.5084 0.9579
5.8405 11.1692 -1.7859 0.9504
5.6135 11.7650 -1.8470 0.9487
4.8061 13.7913 -2.0693 0.9427
4.1764 15.5688 -2.2839 0.9370
2.9196 12.7293 -1.8504 0.9486
6.9609 7.1103 -1.6392 0.9605
6.7336 7.4019 -1.6485 0.9602
6.4030 7.5782 -1.6344 0.9606
6.1114 8.4121 -1.7129 0.9587
5.7719 9.3084 -1.8043 0.9566
5.1525 10.7989 -1.9711 0.9527
4.9108 11.3431 -2.0363 0.9511
4.6482 11.9152 -2.1070 0.9495
4.0510 13.1562 -2.2678 0.9457
2.9642 12.9238 -2.1843 0.9477
6.5365 6.6768 -1.7563 0.9627
5.8521 7.4642 -1.7828 0.9621
5.5397 8.2439 -1.8669 0.9604
5.3656 8.6531 -1.9138 0.9594
4.9764 9.5167 -2.0186 0.9572
4.7589 9.9738 -2.0772 0.9560
4.5241 10.4500 -2.1404 0.9547
4.2705 10.9472 -2.2087 0.9533
3.6990 12.0129 -2.3626 0.9501
3.3764 12.5866 -2.4494 0.9483
6.1536 6.2857 -1.8594 0.9647
6.0275 6.6256 -1.8934 0.9640
5.7351 7.3151 -1.9648 0.9627
5.1809 7.7099 -1.9635 0.9627
5.0099 8.0795 -2.0095 0.9619
4.8266 8.4605 -2.0589 0.9610
4.4184 9.2603 -2.1688 0.9589
3.6842 10.5721 -2.3665 0.9553
3.4009 11.0449 -2.4428 0.9539
2.7647 12.0541 -2.6142 0.9507
5.9265 5.6261 -1.9205 0.9670
5.6851 6.2493 -1.9855 0.9659
5.4078 6.8976 -2.0599 0.9646
5.2460 7.2208 -2.0977 0.9640
4.6957 7.5727 -2.0942 0.9640
4.5168 7.9176 -2.1423 0.9632
4.1208 8.6365 -2.2490 0.9614
3.9016 9.0120 -2.3080 0.9605
3.4151 9.7998 -2.4390 0.9583
2.8551 10.6432 -2.5898 0.9557
5.4996 5.6177 -2.0355 0.9680
5.1042 6.5104 -2.1420 0.9664
4.7873 7.1242 -2.2224 0.9652
4.5195 7.2885 -2.2205 0.9652
4.2418 7.4354 -2.2164 0.9652
4.0561 7.7568 -2.2664 0.9645
3.1803 9.1260 -2.5022 0.9609
2.6475 9.8694 -2.6457 0.9587
5.0965 5.6023 -2.1441 0.9690
4.9673 5.8790 -2.1788 0.9685
4.5266 6.7362 -2.2975 0.9668
4.3556 7.0243 -2.3398 0.9662
4.1346 7.2476 -2.3622 0.9659
3.8157 7.2970 -2.3311 0.9663
3.4208 7.9015 -2.4375 0.9648
3.2041 8.2135 -2.4958 0.9640
2.7278 8.8589 -2.6241 0.9622
2.1872 9.5360 -2.7697 0.9601
5.0715 4.8143 -2.1508 0.9712
4.9600 5.0665 -2.1808 0.9708
4.8412 5.3217 -2.2128 0.9703
4.5800 5.8417 -2.2832 0.9694
4.4367 6.1069 -2.3217 0.9689
4.2845 6.3759 -2.3627 0.9684
3.9482 6.9208 -2.4507 0.9672
3.4376 7.2048 -2.4554 0.9671
3.2187 7.4348 -2.4919 0.9667
2.7897 8.0051 -2.6074 0.9651
4.7236 4.8250 -2.2445 0.9719
4.3519 5.5508 -2.3446 0.9707
4.2122 5.7979 -2.3822 0.9702
4.0641 6.0479 -2.4221 0.9698
2.6252 7.5331 -2.6517 0.9669
2.4010 7.7977 -2.7121 0.9662
1.9125 8.3383 -2.8437 0.9646
4.5056 4.6023 -2.3032 0.9730
4.2708 5.0547 -2.3664 0.9723
3.7099 5.9829 -2.5175 0.9705
3.5485 6.2202 -2.5609 0.9700
3.1976 6.7017 -2.6554 0.9689
2.7765 7.1172 -2.7320 0.9681
2.2625 7.3478 -2.7494 0.9679
4.3037 4.3961 -2.3576 0.9740
4.1924 4.6085 -2.3875 0.9737
3.8170 5.2539 -2.4886 0.9726
3.6769 5.4718 -2.5263 0.9722
3.5289 5.6911 -2.5662 0.9717
3.2076 6.1342 -2.6527 0.9708
2.8500 6.5831 -2.7490 0.9697
2.6544 6.8043 -2.7989 0.9692
2.1743 7.0615 -2.8314 0.9688
1.9210 7.1613 -2.8414 0.9687
1.6933 7.3828 -2.9027 0.9681
4.0074 4.4051 -2.4373 0.9746
3.8923 4.6067 -2.4683 0.9743
3.6417 5.0127 -2.5358 0.9736
3.5057 5.2169 -2.5724 0.9732
3.3621 5.4221 -2.6111 0.9728
3.2107 5.6280 -2.6519 0.9724
3.0511 5.8349 -2.6949 0.9719
2.8831 6.0425 -2.7401 0.9715
2.1153 6.8697 -2.9419 0.9694
1.6061 7.0024 -2.9403 0.9694
3.8350 4.2156 -2.4837 0.9754
3.7229 4.4062 -2.5140 0.9751
3.6043 4.5972 -2.5459 0.9748
3.4790 4.7887 -2.5796 0.9745
2.9067 5.5586 -2.7338 0.9730
2.7444 5.7518 -2.7775 0.9726
2.5738 5.9452 -2.8234 0.9721
3.8748 3.6783 -2.4731 0.9767
3.5646 4.2188 -2.5566 0.9759
3.4492 4.3994 -2.5877 0.9757
3.3274 4.5800 -2.6205 0.9754
3.1991 4.7607 -2.6550 0.9750
3.6235 3.7012 -2.5407 0.9772
3.5227 3.8723 -2.5679 0.9769
3.1857 4.3849 -2.6586 0.9761
3.0611 4.5554 -2.6922 0.9758
2.7926 4.8952 -2.7645 0.9752
2.4968 5.2330 -2.8441 0.9745
1.9981 5.7337 -2.9784 0.9733
1.8162 5.8985 -3.0274 0.9729
1.4275 6.2236 -3.1321 0.9720
3.5715 3.3904 -2.5547 0.9781
3.4787 3.5534 -2.5797 0.9778
3.1677 4.0404 -2.6635 0.9771
2.5320 4.8421 -2.8347 0.9757
2.3857 5.0000 -2.8741 0.9753
2.0725 5.3127 -2.9584 0.9746
1.9052 5.4670 -3.0035 0.9742
1.7304 5.6198 -3.0505 0.9739
1.5480 5.7708 -3.0996 0.9734
1.3578 5.9199 -3.1509 0.9730
3.3420 3.4137 -2.6165 0.9784
3.2464 3.5686 -2.6423 0.9782
3.1455 3.7229 -2.6694 0.9780
3.0394 3.8767 -2.6980 0.9778
2.5582 4.4843 -2.8276 0.9767
3.3008 3.1334 -2.6276 0.9792
3.0214 3.5759 -2.7029 0.9786
2.6958 4.0117 -2.7905 0.9779
2.5765 4.1550 -2.8227 0.9777
2.4515 4.2972 -2.8563 0.9774
2.0415 4.7156 -2.9667 0.9765
1.7376 4.9862 -3.0486 0.9759
1.4079 5.2485 -3.1374 0.9752
1.2331 5.3760 -3.1844 0.9748
