ply
format ascii 1.0
element vertex 214
property float32 x
property float32 y
property float32 z
property float32 I
end_header
-5.3909 -13.8570 2.6218 0.9414
-5.3011 -13.6261 1.9040 0.9427
-5.2520 -13.4999 1.5555 0.9434
-4.9743 -14.2989 1.6257 0.9409
-5.2064 -13.3828 1.2156 0.9440
-4.9301 -14.1720 1.2702 0.9415
-4.6298 -15.0442 1.3325 0.9388
-4.8884 -14.0521 0.9226 0.9421
-4.2502 -15.8296 1.0164 0.9364
-4.5159 -14.6744 0.6054 0.9404
-4.8074 -13.8192 0.2472 0.9431
-4.1538 -15.4707 0.2706 0.9379
-0.7741 -17.2355 -0.0971 0.9333
-4.4150 -14.3463 -0.4227 0.9417
-17.0992 -20.4184 -1.3506 0.8988
-4.6699 -13.4238 -0.7208 0.9447
-0.7709 -17.1637 -0.8713 0.9335
-17.0061 -20.3072 -1.9421 0.8992
-16.4843 -21.1995 -1.9690 0.8979
-24.6207 -36.8955 -3.2523 0.8370
-0.7600 -16.9215 -1.2420 0.9343
-15.8460 -21.9777 -2.6012 0.8968
-16.8367 -20.1049 -3.1150 0.8998
-9.3240 -48.5250 -5.8695 0.8195
-6.6230 -42.7799 -5.1422 0.8400
-0.7600 -16.9202 -2.0119 0.9341
-16.7135 -19.9578 -3.6884 0.9002
-15.6666 -21.7288 -3.7955 0.8974
-12.1201 -45.1408 -6.6225 0.8279
-9.2570 -40.2472 -5.8515 0.8463
-6.9741 -36.2952 -5.2367 0.8613
-3.5700 -30.2798 -4.3200 0.8841
-1.1628 -25.8883 -3.6718 0.9006
-14.4709 -41.5975 -7.2555 0.8365
-7.2127 -31.3593 -5.3010 0.8777
-1.9043 -23.4234 -3.8715 0.9091
-19.9039 -41.8978 -8.7186 0.8280
-16.3642 -37.9349 -7.7654 0.8452
-13.4818 -34.6543 -6.9892 0.8596
-7.3727 -27.4592 -5.3441 0.8907
-4.6211 -24.0497 -4.6031 0.9051
-3.5013 -22.6159 -4.3015 0.9111
-1.6382 -20.1495 -3.7998 0.9210
-0.8568 -19.0773 -3.5894 0.9252
-21.1050 -37.2074 -9.0420 0.8396
-15.0396 -31.6585 -7.4087 0.8665
-10.7060 -27.5192 -6.2417 0.8863
-7.4742 -24.2871 -5.3714 0.9013
-6.1529 -22.9162 -5.0156 0.9075
-3.9471 -20.5419 -4.4216 0.9180
-3.0195 -19.5036 -4.1718 0.9225
-1.4358 -17.6601 -3.7453 0.9301
-26.5261 -36.7905 -10.6597 0.8300
-21.7924 -32.6572 -9.2272 0.8510
-18.7908 -30.4972 -8.4189 0.8631
-13.9991 -26.9072 -7.1285 0.8828
-12.0633 -25.3933 -6.6072 0.8909
-10.3643 -24.0262 -6.1497 0.8981
-8.8636 -22.7834 -5.7456 0.9044
-6.3401 -20.6019 -5.0660 0.9152
-3.3765 -14.6803 -3.5403 0.9400
-3.4405 -17.9054 -4.2852 0.9278
-2.6511 -17.1245 -4.0726 0.9313
-1.9326 -16.3916 -3.8791 0.9344
-1.2765 -15.7017 -3.7024 0.9373
-23.0580 -29.6535 -9.7258 0.8562
-19.3668 -26.8608 -8.5740 0.8721
-13.1458 -23.1757 -6.8987 0.8958
-11.5144 -22.1315 -6.4594 0.9021
-5.4971 -17.8626 -4.8390 0.9257
-4.6060 -17.1549 -4.5990 0.9292
-3.0454 -15.8495 -4.1788 0.9355
-2.3602 -15.2451 -3.9942 0.9382
-1.1479 -14.1192 -3.6678 0.9431
-25.5696 -26.3887 -10.4022 0.8583
-22.8913 -25.4051 -9.6809 0.8675
-20.4882 -24.4652 -9.0338 0.8758
-17.5031 -22.5097 -8.0721 0.8882
-15.6391 -21.6908 -7.5701 0.8948
-12.4222 -20.1610 -6.7039 0.9062
-8.6021 -18.1075 -5.6751 0.9200
-6.5662 -16.8780 -5.1269 0.9275
-3.3505 -14.5671 -4.2315 0.9398
-1.5633 -13.2594 -3.7796 0.9460
-20.3603 -21.0126 -8.9993 0.8848
-18.4888 -20.5192 -8.4954 0.8908
-16.7634 -20.0174 -8.0307 0.8965
-8.4575 -16.2559 -5.6362 0.9262
-5.0367 -14.4784 -4.7150 0.9379
-4.3258 -14.0565 -4.5236 0.9403
-3.0819 -13.3992 -4.2289 0.9441
-2.5394 -13.2160 -4.1393 0.9452
-2.0154 -13.0183 -4.0519 0.9464
-0.9972 -12.2654 -3.7850 0.9498
-16.8745 -17.4151 -8.0607 0.9028
-14.1542 -16.9017 -7.3281 0.9113
-9.6506 -15.6627 -6.1153 0.9254
-6.9524 -14.6347 -5.3857 0.9340
-6.1646 -14.2906 -5.1734 0.9365
-5.4266 -13.9486 -4.9751 0.9389
-3.4728 -12.9342 -4.4517 0.9451
-2.3564 -12.2636 -4.1511 0.9487
-0.9175 -11.2850 -3.7636 0.9534
-14.3761 -14.8367 -7.3879 0.9160
-13.2732 -14.7308 -7.0908 0.9192
-11.2248 -14.4355 -6.5392 0.9253
-9.3782 -14.0538 -6.0420 0.9307
-7.7197 -13.6097 -5.5954 0.9357
-6.9562 -13.3704 -5.3898 0.9380
-6.2338 -13.1223 -5.1952 0.9402
-4.9042 -12.6061 -4.8372 0.9442
-3.1687 -11.8016 -4.3698 0.9494
-2.6518 -11.5293 -4.2306 0.9510
-1.2627 -10.7101 -3.8565 0.9552
-12.4959 -12.8963 -6.8815 0.9260
-11.5982 -12.8719 -6.6398 0.9285
-10.7347 -12.8184 -6.4072 0.9309
-9.1110 -12.6366 -5.9700 0.9354
-8.3506 -12.5139 -5.7652 0.9376
-7.6239 -12.3735 -5.5695 0.9396
-6.9300 -12.2174 -5.3827 0.9416
-6.2682 -12.0479 -5.2045 0.9435
-5.6374 -11.8667 -5.0346 0.9453
-5.0365 -11.6754 -4.8728 0.9470
-3.9201 -11.2685 -4.5721 0.9502
-3.4022 -11.0554 -4.4327 0.9517
-2.4414 -10.6147 -4.1739 0.9544
-1.5730 -10.1606 -3.9401 0.9569
-1.1708 -9.9302 -3.8318 0.9581
-11.0285 -11.3818 -6.4864 0.9338
-9.5514 -11.4054 -6.0886 0.9377
-8.8476 -11.3784 -5.8991 0.9396
-8.1681 -11.3288 -5.7161 0.9414
-6.2767 -11.0657 -5.2068 0.9465
-5.6951 -10.9463 -5.0501 0.9481
-5.1373 -10.8140 -4.8999 0.9496
-4.0912 -10.5161 -4.6182 0.9524
-3.6016 -10.3533 -4.4864 0.9537
-2.6863 -10.0052 -4.2399 0.9562
-1.8511 -9.6338 -4.0150 0.9585
-1.4617 -9.4413 -3.9101 0.9595
-1.0900 -9.2452 -3.8100 0.9606
-9.2111 -10.2226 -5.9970 0.9417
-8.5871 -10.2540 -5.8289 0.9433
-7.9795 -10.2620 -5.6653 0.9449
-5.7268 -10.0962 -5.0587 0.9506
-5.2099 -10.0137 -4.9195 0.9519
-4.7115 -9.9178 -4.7853 0.9532
-4.2317 -9.8097 -4.6560 0.9545
-3.3264 -9.5621 -4.4123 0.9568
-2.9004 -9.4247 -4.2975 0.9579
-2.4915 -9.2796 -4.1874 0.9589
-1.3633 -8.8063 -3.8836 0.9619
-1.0185 -8.6382 -3.7908 0.9628
-0.6883 -8.4661 -3.7018 0.9636
-8.8824 -9.1670 -5.9084 0.9453
-8.3289 -9.2435 -5.7594 0.9466
-7.7856 -9.2969 -5.6131 0.9480
-7.2537 -9.3286 -5.4699 0.9492
-4.7934 -9.2132 -4.8073 0.9553
-4.3443 -9.1449 -4.6864 0.9564
-3.9101 -9.0643 -4.5695 0.9574
-3.0859 -8.8708 -4.3475 0.9594
-2.6958 -8.7598 -4.2424 0.9604
-2.3199 -8.6406 -4.1412 0.9613
-0.3500 -7.7927 -3.6107 0.9662
-8.0725 -8.3311 -5.6903 0.9496
-7.5869 -8.4201 -5.5596 0.9508
-6.6373 -8.5358 -5.3039 0.9530
-5.2815 -8.5719 -4.9388 0.9561
-4.8509 -8.5520 -4.8228 0.9571
-4.4316 -8.5179 -4.7099 0.9581
-4.0241 -8.4708 -4.6002 0.9591
-3.6286 -8.4117 -4.4936 0.9600
-2.1675 -8.0729 -4.1002 0.9634
-1.8324 -7.9668 -4.0099 0.9642
-1.5090 -7.8537 -3.9229 0.9650
-0.8971 -7.6087 -3.7581 0.9664
-7.3842 -7.6208 -5.5050 0.9533
-6.9536 -7.7173 -5.3891 0.9543
-6.5275 -7.7945 -5.2743 0.9552
-6.1067 -7.8535 -5.1610 0.9562
-5.6924 -7.8951 -5.0494 0.9571
-5.2853 -7.9204 -4.9398 0.9580
-4.8862 -7.9303 -4.8323 0.9589
-3.3798 -7.8349 -4.4266 0.9623
-1.4179 -7.3795 -3.8983 0.9667
-0.8450 -7.1674 -3.7441 0.9680
-6.7914 -7.0090 -5.3454 0.9565
-6.4063 -7.1098 -5.2416 0.9573
-5.6448 -7.2595 -5.0366 0.9589
-5.2704 -7.3099 -4.9358 0.9597
-4.9014 -7.3451 -4.8364 0.9605
-4.5385 -7.3660 -4.7387 0.9613
-3.8332 -7.3676 -4.5487 0.9628
-3.1581 -7.3211 -4.3670 0.9643
-2.8328 -7.2817 -4.2794 0.9650
-2.5160 -7.2323 -4.1940 0.9657
-1.3354 -6.9499 -3.8761 0.9682
-0.2946 -6.5587 -3.5958 0.9705
-6.2751 -6.4762 -5.2063 0.9592
-5.9280 -6.5790 -5.1128 0.9599
-5.5822 -6.6658 -5.0197 0.9606
-5.2387 -6.7372 -4.9272 0.9613
-4.8983 -6.7937 -4.8356 0.9621
-4.2300 -6.8652 -4.6556 0.9634
-3.9033 -6.8814 -4.5676 0.9641
-2.6578 -6.8316 -4.2322 0.9667
-1.7967 -6.6918 -4.0003 0.9685
-1.5246 -6.6288 -3.9271 0.9691
-1.2602 -6.5586 -3.8559 0.9696
-1.0034 -6.4816 -3.7867 0.9702
-0.7544 -6.3983 -3.7196 0.9707
-0.2791 -6.2147 -3.5917 0.9717
