ply
format ascii 1.0
element vertex 228
property float32 x
property float32 y
property float32 z
property float32 I
end_header
-5.3580 -13.4626 1.8868 0.9432
-5.3097 -13.3413 1.5419 0.9439
-4.4333 -15.8314 1.7654 0.9360
-4.5791 -14.3801 0.2549 0.9414
-4.5386 -14.2528 -0.0842 0.9419
-4.2253 -15.0886 -0.0882 0.9392
-3.8384 -15.8365 -0.4588 0.9369
-16.5537 -21.2969 -1.3680 0.8976
-4.4455 -13.9606 -0.7430 0.9430
-24.7329 -36.9198 -3.2583 0.8367
-4.1017 -14.6470 -1.1153 0.9408
-16.9015 -20.2307 -2.5309 0.8995
-24.7352 -36.9231 -4.2667 0.8365
-4.6396 -47.7736 -4.6081 0.8246
-16.8190 -20.1319 -3.1161 0.8997
-15.7467 -21.8030 -3.1947 0.8973
-5.3074 -39.9561 -4.7879 0.8501
-3.5001 -36.0403 -4.3012 0.8643
-13.1122 -46.8240 -6.8897 0.8216
-7.7202 -37.5928 -5.4377 0.8564
-4.1631 -31.3415 -4.4798 0.8801
-2.8070 -28.9034 -4.1146 0.8893
-15.2790 -42.7131 -7.4732 0.8320
-12.2739 -38.5443 -6.6639 0.8488
-9.8314 -35.1081 -6.0062 0.8626
-6.1108 -29.7558 -5.0042 0.8841
-3.4208 -25.7535 -4.2799 0.9000
-2.3406 -24.1004 -3.9890 0.9065
-20.5427 -42.6067 -8.8906 0.8249
-11.6310 -32.5150 -6.4908 0.8689
-9.5914 -30.1203 -5.9415 0.8793
-7.8521 -28.0400 -5.4732 0.8882
-5.0501 -24.5911 -4.7186 0.9029
-2.0049 -20.6443 -3.8986 0.9190
-18.2008 -34.5789 -8.2600 0.8523
-13.1122 -29.8400 -6.8897 0.8752
-9.3739 -26.2052 -5.8830 0.8924
-7.8591 -24.6804 -5.4751 0.8995
-6.5269 -23.3077 -5.1163 0.9058
-3.5476 -14.6368 -3.1835 0.9403
-4.2978 -20.9278 -4.5160 0.9164
-21.9543 -32.7721 -9.2708 0.8504
-19.0054 -30.6536 -8.4767 0.8623
-16.4713 -28.7842 -7.7943 0.8726
-9.1696 -23.0397 -5.8280 0.9031
-7.8382 -21.9122 -5.4694 0.9088
-4.6108 -19.0231 -4.6003 0.9227
-2.2161 -16.6835 -3.9554 0.9332
-29.6908 -33.0954 -11.5120 0.8322
-26.1351 -31.2831 -10.5545 0.8450
-23.0427 -29.6453 -9.7217 0.8563
-19.4220 -26.8919 -8.5888 0.8719
-8.9728 -20.4198 -5.7750 0.9120
-7.7945 -19.5847 -5.4577 0.9166
-6.7248 -18.7997 -5.1696 0.9208
-4.8614 -17.3603 -4.6678 0.9282
-4.0472 -16.6978 -4.4485 0.9315
-3.2999 -16.0688 -4.2473 0.9345
-2.6126 -15.4702 -4.0622 0.9372
-35.0237 -29.4158 -12.9481 0.8268
-31.4190 -28.3353 -11.9774 0.8387
-28.2024 -27.2968 -11.1112 0.8494
-20.4142 -24.4353 -9.0139 0.8760
-17.4930 -22.5054 -8.0694 0.8883
-15.6785 -21.7086 -7.5808 0.8946
-14.0322 -20.9465 -7.1374 0.9005
-12.5349 -20.2174 -6.7342 0.9058
-9.9222 -18.8508 -6.0306 0.9152
-8.7798 -18.2099 -5.7230 0.9194
-7.7316 -17.5950 -5.4407 0.9232
-6.7677 -17.0047 -5.1812 0.9267
-3.6018 -14.8601 -4.3286 0.9384
-2.3475 -13.9005 -3.9908 0.9431
-1.2629 -13.0044 -3.6988 0.9471
-29.0454 -22.6985 -11.3382 0.8570
-22.1492 -21.4380 -9.4811 0.8790
-18.3815 -20.4893 -8.4665 0.8912
-16.7096 -20.0010 -8.0162 0.8967
-15.1639 -19.5089 -7.6000 0.9018
-13.7052 -18.9763 -7.1998 0.9067
-8.5884 -16.3168 -5.6715 0.9257
-7.6521 -15.8709 -5.4193 0.9289
-6.7814 -15.4328 -5.1848 0.9319
-5.9710 -15.0029 -4.9666 0.9347
-5.2160 -14.5816 -4.7633 0.9372
-2.2139 -13.1093 -4.0892 0.9459
-1.6991 -12.7913 -3.9689 0.9474
-1.2068 -12.4267 -3.8402 0.9491
-21.3378 -17.9212 -9.2626 0.8892
-16.7485 -17.3949 -8.0267 0.9032
-15.3905 -17.1553 -7.6610 0.9074
-11.7828 -16.3144 -6.6895 0.9187
-9.7268 -15.6882 -6.1358 0.9251
-8.7913 -15.3632 -5.8838 0.9281
-7.0825 -14.6896 -5.4208 0.9336
-6.3077 -14.3547 -5.2119 0.9360
-4.2553 -13.3633 -4.6618 0.9426
-3.0797 -12.7060 -4.3458 0.9464
-2.5425 -12.3803 -4.2012 0.9481
-2.0364 -12.0579 -4.0649 0.9498
-19.0532 -14.8897 -8.6473 0.9024
-17.7859 -14.9381 -8.3061 0.9060
-16.5666 -14.9407 -7.9777 0.9096
-15.3970 -14.9026 -7.6628 0.9130
-14.2777 -14.8287 -7.3613 0.9163
-13.2088 -14.7235 -7.0735 0.9194
-10.2976 -14.2581 -6.2895 0.9280
-8.5903 -13.8553 -5.8298 0.9331
-7.8019 -13.6341 -5.6175 0.9354
-5.6751 -12.9151 -5.0448 0.9418
-5.0395 -12.6624 -4.8736 0.9437
-3.8673 -12.1448 -4.5579 0.9473
-2.3313 -11.3521 -4.1443 0.9520
-1.8723 -11.0863 -4.0207 0.9534
-1.4373 -10.8207 -3.9036 0.9547
-1.0251 -10.5557 -3.7926 0.9559
-16.2001 -12.6601 -7.8790 0.9157
-15.2125 -12.7767 -7.6131 0.9184
-12.4162 -12.8954 -6.8601 0.9262
-11.5455 -12.8695 -6.6256 0.9286
-10.7071 -12.8162 -6.3998 0.9310
-8.3875 -12.5204 -5.7752 0.9375
-7.0009 -12.2344 -5.4018 0.9414
-4.5845 -11.5190 -4.7510 0.9483
-4.0490 -11.3191 -4.6068 0.9498
-3.5388 -11.1132 -4.4695 0.9513
-3.0529 -10.9022 -4.3386 0.9527
-2.5903 -10.6870 -4.2140 0.9540
-1.3315 -10.0238 -3.8751 0.9576
-0.9516 -9.7988 -3.7728 0.9587
-13.2605 -11.1373 -7.0874 0.9279
-11.7102 -11.3342 -6.6699 0.9320
-10.2344 -11.4080 -6.2725 0.9359
-9.5281 -11.4049 -6.0823 0.9378
-5.2245 -10.8359 -4.9234 0.9493
-4.1987 -10.5499 -4.6472 0.9521
-3.7178 -10.3933 -4.5177 0.9534
-3.2573 -10.2291 -4.3937 0.9547
-2.8167 -10.0584 -4.2750 0.9559
-2.3951 -9.8818 -4.1615 0.9570
-1.9921 -9.7003 -4.0529 0.9581
-1.6068 -9.5146 -3.9492 0.9592
-1.2387 -9.3251 -3.8501 0.9602
-0.8869 -9.1326 -3.7553 0.9611
-12.3898 -9.6824 -6.8530 0.9337
-11.7276 -9.8498 -6.6746 0.9354
-11.0728 -9.9860 -6.4983 0.9370
-10.4275 -10.0927 -6.3245 0.9386
-9.1732 -10.2251 -5.9868 0.9418
-8.5671 -10.2546 -5.8235 0.9434
-7.9765 -10.2620 -5.6645 0.9449
-7.4021 -10.2490 -5.5098 0.9463
-6.8446 -10.2173 -5.3597 0.9478
-6.3045 -10.1685 -5.2142 0.9491
-5.7819 -10.1040 -5.0735 0.9505
-4.3198 -9.8307 -4.6798 0.9542
-3.8673 -9.7171 -4.5579 0.9554
-2.2244 -9.1775 -4.1155 0.9596
-1.8536 -9.0257 -4.0156 0.9606
-0.8295 -8.5411 -3.7399 0.9632
-11.0521 -8.6370 -6.4927 0.9400
-9.3798 -9.0786 -6.0424 0.9441
-8.8337 -9.1746 -5.8953 0.9454
-7.7681 -9.2983 -5.6084 0.9480
-6.7456 -9.3401 -5.3330 0.9505
-6.2527 -9.3337 -5.2003 0.9517
-5.7728 -9.3110 -5.0711 0.9529
-4.8536 -9.2212 -4.8235 0.9551
-4.4148 -9.1566 -4.7054 0.9562
-3.5792 -8.9931 -4.4803 0.9582
-2.7992 -8.7905 -4.2703 0.9602
-2.0737 -8.5556 -4.0749 0.9619
-1.7308 -8.4280 -3.9826 0.9628
-1.4008 -8.2944 -3.8937 0.9636
-1.0833 -8.1555 -3.8082 0.9644
-0.7781 -8.0119 -3.7260 0.9651
-8.9879 -8.1057 -5.9369 0.9475
-8.5070 -8.2338 -5.8073 0.9486
-6.6349 -8.5360 -5.3032 0.9530
-6.1855 -8.5645 -5.1822 0.9540
-4.8953 -8.5547 -4.8348 0.9570
-4.4862 -8.5232 -4.7246 0.9580
-3.7015 -8.4235 -4.5133 0.9598
-3.3261 -8.3573 -4.4122 0.9607
-2.2690 -8.1029 -4.1275 0.9632
-0.7318 -7.5352 -3.7136 0.9668
-9.0372 -7.0624 -5.9501 0.9496
-8.1913 -7.3873 -5.7223 0.9515
-7.7680 -7.5186 -5.6083 0.9525
-7.3465 -7.6300 -5.4948 0.9534
-6.9280 -7.7224 -5.3821 0.9543
-5.3053 -7.9196 -4.9452 0.9580
-3.1019 -7.7940 -4.3518 0.9629
-2.7668 -7.7346 -4.2616 0.9637
-2.1254 -7.5897 -4.0888 0.9651
-1.8191 -7.5054 -4.0064 0.9658
-1.5226 -7.4140 -3.9265 0.9665
-1.2356 -7.3162 -3.8492 0.9671
-7.8852 -6.6227 -5.6399 0.9541
-7.1337 -6.9046 -5.4375 0.9557
-6.7577 -7.0185 -5.3363 0.9565
-6.0113 -7.1954 -5.1353 0.9581
-5.6429 -7.2598 -5.0361 0.9589
-5.2787 -7.3090 -4.9380 0.9597
-4.9196 -7.3437 -4.8413 0.9605
-4.2191 -7.3731 -4.6527 0.9620
-3.5455 -7.3536 -4.4713 0.9635
-3.2197 -7.3273 -4.3835 0.9642
-2.5917 -7.2451 -4.2144 0.9655
-2.2897 -7.1905 -4.1331 0.9662
-1.9959 -7.1276 -4.0540 0.9668
-1.7105 -7.0571 -3.9771 0.9674
-0.6516 -6.7092 -3.6920 0.9697
-7.5877 -5.9296 -5.5598 0.9565
-6.9199 -6.2408 -5.3800 0.9579
-6.5827 -6.3713 -5.2892 0.9586
-6.2448 -6.4858 -5.1982 0.9593
-5.9072 -6.5846 -5.1073 0.9600
-5.5709 -6.6683 -5.0167 0.9607
-5.2369 -6.7375 -4.9267 0.9614
-4.5784 -6.8344 -4.7494 0.9627
-4.2553 -6.8635 -4.6624 0.9634
-3.9371 -6.8803 -4.5767 0.9640
-3.3172 -6.8801 -4.4098 0.9653
-3.0162 -6.8641 -4.3287 0.9660
-2.4337 -6.8038 -4.1719 0.9672
-1.6118 -6.6500 -3.9505 0.9689
-1.0997 -6.5115 -3.8126 0.9700
