ply
format ascii 1.0
element vertex 386
property float32 x
property float32 y
property float32 z
property float32 I
end_header
38.4919 5.2084 6.8490 0.8540
37.6862 7.9098 6.7899 0.8552
38.3308 9.5053 6.9635 0.8518
39.1194 11.2181 7.1758 0.8476
28.9253 13.0580 5.5959 0.8791
40.2172 23.7064 8.2317 0.8273
30.6581 4.1484 4.7394 0.8823
30.8905 5.3245 4.8020 0.8809
32.3113 13.2008 5.3471 0.8683
29.1837 13.1746 4.9052 0.8785
24.5032 13.2731 4.2691 0.8934
22.5389 13.2858 4.0081 0.8995
37.1606 23.7574 6.7568 0.8365
32.1618 24.0067 6.1482 0.8501
30.4411 24.4865 5.9849 0.8538
16.0375 18.5676 3.7586 0.9055
25.4012 2.5050 3.3238 0.9022
25.8124 5.4177 3.4346 0.8991
26.0239 6.4534 3.4915 0.8975
25.7209 9.4373 3.5677 0.8954
26.1128 10.6684 3.6733 0.8925
26.5685 11.9940 3.7960 0.8891
22.1698 13.0682 3.3512 0.9014
19.0229 13.1550 3.0118 0.9109
27.3376 23.6694 4.7089 0.8643
16.0540 18.5868 3.1982 0.9057
21.7891 2.1488 2.3511 0.9157
22.3155 6.3993 2.4929 0.9108
22.4542 7.3283 2.5363 0.9094
21.6815 7.9552 2.4800 0.9113
19.2942 7.8826 2.2381 0.9196
22.1732 10.0099 2.6124 0.9068
22.4754 11.1423 2.6937 0.9040
22.1723 13.0697 2.7638 0.9016
17.5670 13.1126 2.3539 0.9156
16.3852 13.1800 2.2581 0.9189
26.9104 23.2995 3.8223 0.8666
25.5444 23.7876 3.7482 0.8690
16.1171 18.6598 2.6477 0.9056
7.6117 0.7506 0.6475 0.9698
19.1253 2.5879 1.6338 0.9255
19.2375 4.0377 1.6640 0.9241
19.4039 5.5644 1.7088 0.9222
19.0388 8.5948 1.7683 0.9196
19.8954 12.7194 1.9990 0.9096
16.6697 13.4089 1.8110 0.9177
14.1162 13.1454 1.6329 0.9255
13.3676 13.3836 1.6013 0.9269
20.6180 23.8708 2.6701 0.8811
7.0715 0.6974 0.4406 0.9719
17.0113 2.3018 1.0645 0.9335
17.0401 2.9371 1.0722 0.9330
17.1200 4.2454 1.0938 0.9318
17.1720 4.9243 1.1078 0.9309
17.2325 5.6241 1.1241 0.9299
17.3023 6.3484 1.1429 0.9288
17.3720 7.0973 1.1637 0.9276
16.6887 7.5339 1.1354 0.9292
16.8975 9.1531 1.1917 0.9259
17.3219 11.9787 1.3060 0.9191
17.5013 13.0636 1.3543 0.9162
16.7077 13.4395 1.3296 0.9177
12.2814 13.2201 1.1189 0.9302
19.6656 22.7682 1.8656 0.8864
6.6069 0.8940 0.2629 0.9737
15.3558 3.2230 0.6187 0.9391
15.3783 3.8135 0.6248 0.9385
15.4050 4.4176 0.6319 0.9379
15.5119 6.3374 0.6607 0.9351
15.5545 7.0219 0.6729 0.9340
14.9642 8.1059 0.6711 0.9341
15.0958 9.6510 0.7065 0.9308
15.1736 10.4931 0.7274 0.9288
15.2607 11.3911 0.7509 0.9266
15.3584 12.3541 0.7772 0.9241
14.1186 13.1476 0.7607 0.9257
13.3126 13.3285 0.7428 0.9274
12.5152 13.4717 0.7251 0.9290
11.8068 13.6695 0.7122 0.9302
6.1955 0.6110 0.1052 0.9754
13.9460 2.4038 0.2390 0.9450
13.9526 2.9285 0.2408 0.9446
13.9606 3.4620 0.2430 0.9441
13.9809 4.5629 0.2484 0.9429
14.0075 5.7228 0.2556 0.9413
14.0235 6.3307 0.2599 0.9403
13.7398 7.4427 0.2640 0.9394
13.4756 8.6151 0.2702 0.9380
13.5315 10.1004 0.2852 0.9347
13.5642 10.9109 0.2941 0.9327
13.6007 11.7758 0.3039 0.9306
13.6416 12.7033 0.3149 0.9281
13.3137 13.3296 0.3182 0.9274
12.4420 13.3929 0.3088 0.9295
11.5433 13.3644 0.2983 0.9318
5.8508 1.0085 -0.0334 0.9765
12.7804 3.6650 -0.0749 0.9482
12.7774 4.1701 -0.0757 0.9477
12.7739 4.6869 -0.0766 0.9470
12.7700 5.2171 -0.0777 0.9463
12.7606 6.3261 -0.0802 0.9446
12.7551 6.9092 -0.0817 0.9436
12.6132 7.4350 -0.0824 0.9431
12.1631 8.4112 -0.0833 0.9426
12.1552 9.0730 -0.0854 0.9411
12.1366 10.5081 -0.0904 0.9378
12.1139 12.1283 -0.0965 0.9337
5.5441 0.5467 -0.1569 0.9780
11.7979 2.4762 -0.3394 0.9529
11.7884 2.9233 -0.3420 0.9526
11.7773 3.3773 -0.3450 0.9522
11.7331 4.7935 -0.3569 0.9505
11.7144 5.2883 -0.3619 0.9499
11.6705 6.3218 -0.3737 0.9483
11.0655 7.6522 -0.3788 0.9476
11.0327 8.2352 -0.3877 0.9464
10.9966 8.8455 -0.3974 0.9451
10.9568 9.4866 -0.4081 0.9437
10.9130 10.1624 -0.4199 0.9421
10.8113 11.6376 -0.4473 0.9384
5.2669 0.5194 -0.2684 0.9790
10.9511 2.2985 -0.5675 0.9562
10.8992 3.5571 -0.5814 0.9551
10.8765 3.9907 -0.5876 0.9547
10.8509 4.4331 -0.5944 0.9541
10.8222 4.8855 -0.6022 0.9536
10.7903 5.3493 -0.6108 0.9529
10.7549 5.8258 -0.6203 0.9522
10.7158 6.3165 -0.6308 0.9514
10.6727 6.8233 -0.6424 0.9505
10.6066 7.3348 -0.6540 0.9497
10.0446 8.0797 -0.6538 0.9497
9.9850 8.6452 -0.6698 0.9485
9.9196 9.2373 -0.6874 0.9472
9.7692 10.5158 -0.7279 0.9441
9.6826 11.2102 -0.7512 0.9424
5.0092 0.8634 -0.3727 0.9798
5.0040 1.0503 -0.3749 0.9797
10.1976 2.5288 -0.7704 0.9587
10.1760 2.9181 -0.7762 0.9584
10.1510 3.3129 -0.7829 0.9581
10.1225 3.7141 -0.7906 0.9577
10.0905 4.1225 -0.7992 0.9572
10.0148 4.9649 -0.8196 0.9562
9.9708 5.4010 -0.8314 0.9555
9.8690 6.3094 -0.8589 0.9541
9.8106 6.7844 -0.8746 0.9533
9.1698 7.9393 -0.8893 0.9525
9.0902 8.4650 -0.9108 0.9514
9.0034 9.0141 -0.9341 0.9502
8.9085 9.5893 -0.9597 0.9489
8.8047 10.1938 -0.9876 0.9474
4.7977 0.4731 -0.4628 0.9808
4.7940 0.6487 -0.4644 0.9807
4.7828 1.0038 -0.4692 0.9806
9.5255 2.7316 -0.9514 0.9610
9.3867 4.2375 -0.9887 0.9595
9.1757 5.8662 -1.0456 0.9572
9.0377 6.7461 -1.0827 0.9557
8.9494 7.1988 -1.1027 0.9549
8.2901 8.3000 -1.1262 0.9540
8.1850 8.8105 -1.1545 0.9528
8.0706 9.3438 -1.1853 0.9516
4.5866 0.7906 -0.5529 0.9814
8.9781 2.2264 -1.0988 0.9634
8.9196 2.9110 -1.1145 0.9629
8.7996 3.9725 -1.1468 0.9619
8.6959 4.7105 -1.1748 0.9609
8.6363 5.0907 -1.1908 0.9604
8.4999 5.8779 -1.2276 0.9592
7.9822 7.4332 -1.2956 0.9570
7.5677 8.1461 -1.3208 0.9562
7.4469 8.6218 -1.3533 0.9551
4.5440 0.4481 -0.6470 0.9817
4.5447 0.6150 -0.6498 0.9816
4.5457 0.7835 -0.6536 0.9815
8.4679 2.0999 -1.2362 0.9654
8.4391 2.4201 -1.2439 0.9652
8.4059 2.7434 -1.2529 0.9649
8.3683 3.0704 -1.2630 0.9646
8.2790 3.7375 -1.2870 0.9640
8.2270 4.0785 -1.3010 0.9636
8.1069 4.7787 -1.3334 0.9627
7.9638 5.5072 -1.3719 0.9616
7.6997 6.6665 -1.4430 0.9597
7.4106 7.4194 -1.4858 0.9585
7.0343 7.5720 -1.4644 0.9591
6.9101 8.0002 -1.4978 0.9582
4.5745 0.6190 -0.7605 0.9815
4.5757 0.7887 -0.7649 0.9814
8.0099 1.9863 -1.3595 0.9671
7.9799 2.2883 -1.3676 0.9669
7.9454 2.5931 -1.3769 0.9667
7.9063 2.9009 -1.3874 0.9664
7.8625 3.2122 -1.3992 0.9662
7.7599 3.8470 -1.4268 0.9655
7.7007 4.1713 -1.4428 0.9651
7.6359 4.5011 -1.4602 0.9647
7.2178 6.2493 -1.5728 0.9620
6.9975 7.0058 -1.6312 0.9607
6.4427 7.4591 -1.6237 0.9608
4.6049 0.6231 -0.8734 0.9813
4.6063 0.7940 -0.8786 0.9812
4.6081 0.9671 -0.8850 0.9810
7.5959 1.8837 -1.4710 0.9686
7.5652 2.1694 -1.4793 0.9685
7.5298 2.4575 -1.4888 0.9683
7.4898 2.7481 -1.4996 0.9681
7.3401 3.6388 -1.5399 0.9672
7.0638 4.8849 -1.6143 0.9656
6.7897 5.8787 -1.6881 0.9641
6.6837 6.2240 -1.7166 0.9635
6.5696 6.5775 -1.7474 0.9629
6.4467 6.9394 -1.7803 0.9622
6.3034 7.2979 -1.8125 0.9615
4.6360 0.6273 -0.9889 0.9811
7.1884 2.0614 -1.5807 0.9699
7.1525 2.3343 -1.5904 0.9697
7.1119 2.6094 -1.6013 0.9695
7.0665 2.8870 -1.6136 0.9693
7.0160 3.1673 -1.6272 0.9690
6.9603 3.4506 -1.6421 0.9687
6.8993 3.7372 -1.6586 0.9684
6.8326 4.0276 -1.6765 0.9681
6.7602 4.3219 -1.6960 0.9677
6.6817 4.6206 -1.7172 0.9673
6.5052 5.2327 -1.7647 0.9664
6.4065 5.5469 -1.7913 0.9659
6.3005 5.8672 -1.8198 0.9654
5.9333 6.8694 -1.9187 0.9636
4.6665 0.4602 -1.1021 0.9809
4.6719 0.9806 -1.1219 0.9806
6.8758 1.7051 -1.6649 0.9713
6.8443 1.9627 -1.6734 0.9712
6.8081 2.2219 -1.6831 0.9710
6.7215 2.7461 -1.7065 0.9706
6.6708 3.0114 -1.7201 0.9704
6.6148 3.2793 -1.7352 0.9701
6.4867 3.8237 -1.7697 0.9695
6.4142 4.1007 -1.7892 0.9692
6.3356 4.3813 -1.8104 0.9688
6.2508 4.6658 -1.8332 0.9685
6.0612 5.2479 -1.8843 0.9676
5.7216 6.1589 -1.9757 0.9660
6.4513 2.3670 -1.7792 0.9720
6.4055 2.6170 -1.7916 0.9718
6.3547 2.8688 -1.8052 0.9716
6.1710 3.6376 -1.8547 0.9708
6.0987 3.8990 -1.8742 0.9705
6.0205 4.1635 -1.8952 0.9702
5.9362 4.4309 -1.9179 0.9699
5.6437 5.2555 -1.9967 0.9686
5.5319 5.5385 -2.0268 0.9682
5.4124 5.8261 -2.0590 0.9677
4.7339 0.6405 -1.3523 0.9803
4.7389 0.9946 -1.3708 0.9801
6.2372 1.7886 -1.8369 0.9734
6.0640 2.7375 -1.8835 0.9727
5.8096 3.7141 -1.9520 0.9717
5.7320 3.9639 -1.9729 0.9714
5.4625 4.7296 -2.0455 0.9704
5.3595 4.9909 -2.0732 0.9700
5.0066 5.7964 -2.1683 0.9687
4.7683 0.6452 -1.4800 0.9801
5.9317 1.9359 -1.9192 0.9742
5.8457 2.3883 -1.9423 0.9739
5.7955 2.6163 -1.9558 0.9737
5.6800 3.0768 -1.9869 0.9733
5.6145 3.3095 -2.0046 0.9731
5.2009 4.5030 -2.1159 0.9716
4.9913 4.9972 -2.1724 0.9709
4.7531 5.5029 -2.2365 0.9700
5.8287 0.5748 -1.9469 0.9756
5.8150 0.7868 -1.9506 0.9756
5.7748 1.2120 -1.9614 0.9754
5.6412 2.0698 -1.9974 0.9750
5.5962 2.2863 -2.0095 0.9748
5.4919 2.7226 -2.0376 0.9745
5.3675 3.1639 -2.0711 0.9741
5.2974 3.3867 -2.0900 0.9738
5.2217 3.6110 -2.1103 0.9736
5.1404 3.8370 -2.1322 0.9733
4.9600 4.2944 -2.1808 0.9727
4.7542 4.7599 -2.2362 0.9720
4.6412 4.9958 -2.2667 0.9717
4.5210 5.2342 -2.2990 0.9713
5.5939 0.5516 -2.0101 0.9764
5.5804 0.7551 -2.0138 0.9764
5.5405 1.1629 -2.0245 0.9762
5.5141 1.3674 -2.0316 0.9762
5.4833 1.5724 -2.0399 0.9761
5.4083 1.9843 -2.0601 0.9758
5.3518 2.1865 -2.0674 0.9757
5.2608 2.6081 -2.0998 0.9754
5.2020 2.8178 -2.1157 0.9752
4.9945 3.4539 -2.1715 0.9745
4.8288 3.8842 -2.2161 0.9740
4.7372 4.1016 -2.2408 0.9737
4.5355 4.5409 -2.2951 0.9731
4.3075 4.9870 -2.3565 0.9724
5.3211 1.1168 -2.0836 0.9770
5.2646 1.5097 -2.0988 0.9768
5.1785 1.9000 -2.1139 0.9766
5.1467 2.1027 -2.1305 0.9765
4.9871 2.7014 -2.1735 0.9760
4.9242 2.9026 -2.1905 0.9758
4.7829 3.3076 -2.2285 0.9754
4.6203 3.7165 -2.2723 0.9749
4.3330 4.3381 -2.3497 0.9741
4.1102 4.7586 -2.4097 0.9734
5.1539 0.6974 -2.1286 0.9778
5.1366 0.8854 -2.1333 0.9777
5.0893 1.2620 -2.1460 0.9776
4.8953 2.2099 -2.1982 0.9771
4.8430 2.4009 -2.2123 0.9769
4.7241 2.7846 -2.2443 0.9766
4.4258 3.5600 -2.3247 0.9757
4.2442 3.9523 -2.3736 0.9752
4.9723 0.4903 -2.1775 0.9784
4.9421 0.8518 -2.1856 0.9784
4.9209 1.0328 -2.1913 0.9783
4.8660 1.3954 -2.2061 0.9782
4.7940 1.7590 -2.2255 0.9780
4.6532 2.3068 -2.2634 0.9776
4.5971 2.4902 -2.2785 0.9774
4.4707 2.8582 -2.3126 0.9771
4.4002 3.0429 -2.3316 0.9769
4.1578 3.5999 -2.3968 0.9763
4.0662 3.7865 -2.4215 0.9760
3.8659 4.1614 -2.4754 0.9755
3.7569 4.3495 -2.5048 0.9752
4.7584 0.8202 -2.2351 0.9789
4.6835 1.3431 -2.2553 0.9788
4.6127 1.6924 -2.2743 0.9786
4.5710 1.8674 -2.2856 0.9785
4.5248 2.0427 -2.2980 0.9784
4.4192 2.3938 -2.3264 0.9781
4.3596 2.5698 -2.3425 0.9779
3.9889 3.4537 -2.4423 0.9770
3.8045 3.8090 -2.4920 0.9765
3.7040 3.9870 -2.5191 0.9763
4.6010 0.6226 -2.2775 0.9795
4.5639 0.9579 -2.2875 0.9794
4.5393 1.1257 -2.2941 0.9794
4.5107 1.2935 -2.3018 0.9793
4.4002 1.7977 -2.3316 0.9790
4.3549 1.9659 -2.3438 0.9789
4.1298 2.6402 -2.4044 0.9784
3.9897 2.9780 -2.4421 0.9781
3.9124 3.1471 -2.4629 0.9779
3.7427 3.4853 -2.5086 0.9775
3.4485 3.9926 -2.5878 0.9768
4.4356 0.6002 -2.3220 0.9800
4.4193 0.7617 -2.3264 0.9800
4.3991 0.9233 -2.3319 0.9799
4.3468 1.2465 -2.3459 0.9798
4.3147 1.4082 -2.3546 0.9798
4.2786 1.5699 -2.3643 0.9797
4.1939 1.8933 -2.3871 0.9795
4.1453 2.0550 -2.4002 0.9794
4.0350 2.3785 -2.4299 0.9791
3.9733 2.5402 -2.4465 0.9790
3.6803 3.1864 -2.5254 0.9783
3.5950 3.3477 -2.5484 0.9781
3.5046 3.5088 -2.5727 0.9779
3.3083 3.8302 -2.6256 0.9775
4.2902 0.4231 -2.3612 0.9805
4.2422 0.8904 -2.3741 0.9804
4.2185 1.0461 -2.3805 0.9804
4.1909 1.2018 -2.3879 0.9803
4.1240 1.5131 -2.4059 0.9802
4.0409 1.8242 -2.4283 0.9800
3.9414 2.1350 -2.4551 0.9798
3.8854 2.2902 -2.4702 0.9796
3.8250 2.4453 -2.4865 0.9795
3.7601 2.6003 -2.5039 0.9794
3.6909 2.7550 -2.5226 0.9792
3.4553 3.2177 -2.5860 0.9787
3.3673 3.3713 -2.6097 0.9785
3.2742 3.5244 -2.6348 0.9783
3.1761 3.6771 -2.6612 0.9781
3.7979 2.0573 -2.4938 0.9802
3.7430 2.2064 -2.5085 0.9801
3.6206 2.5038 -2.5415 0.9799
3.3231 3.0945 -2.6216 0.9792
3.2372 3.2410 -2.6447 0.9791
