ply
format ascii 1.0
element vertex 332
property float32 x
property float32 y
property float32 z
property float32 I
end_header
37.9783 2.4672 6.7107 0.8568
38.2008 3.8879 6.7706 0.8556
38.5277 5.3500 6.8587 0.8539
38.9667 6.8709 6.9769 0.8515
37.7543 8.0900 6.8082 0.8549
39.4276 13.0987 7.3258 0.8447
35.3103 13.1823 6.6459 0.8581
32.6804 13.5810 6.2402 0.8661
28.4518 13.0627 5.5203 0.8806
42.7776 23.5653 8.6116 0.8201
37.6251 24.4697 7.9139 0.8334
30.4973 3.1038 4.6962 0.8833
30.9188 5.4518 4.8097 0.8807
30.1832 7.6312 4.7694 0.8816
30.6183 8.9437 4.8866 0.8789
31.7547 11.8549 5.1926 0.8718
28.7421 13.1960 4.8450 0.8799
25.8501 13.0324 4.4349 0.8895
23.7957 13.1086 4.1619 0.8959
21.8010 13.0704 3.8940 0.9023
33.7039 23.7162 6.3134 0.8464
31.2888 23.7727 6.0198 0.8530
29.9680 24.5472 5.9345 0.8549
25.3358 1.6459 3.3062 0.9027
25.4087 2.5860 3.3258 0.9021
25.5151 3.5431 3.3545 0.9013
25.6564 4.5240 3.3925 0.9002
25.8349 5.5359 3.4406 0.8989
26.0535 6.5871 3.4995 0.8973
25.4973 7.4478 3.4590 0.8984
25.4306 8.4486 3.4896 0.8975
19.2046 7.9809 2.7082 0.9195
26.6558 12.2381 3.8195 0.8884
31.3138 23.7917 5.1212 0.8533
26.9340 23.7587 4.6769 0.8651
21.8581 3.0352 2.3697 0.9150
22.0509 4.7251 2.4216 0.9133
22.1819 5.6083 2.4569 0.9121
22.3380 6.5250 2.4989 0.9106
22.3720 7.4324 2.5315 0.9095
21.7150 8.1068 2.4890 0.9110
22.2233 10.2031 2.6259 0.9063
22.5362 11.3617 2.7101 0.9035
22.8958 12.6128 2.8070 0.9002
16.0941 13.1829 2.2340 0.9197
27.0469 23.8582 3.8728 0.8649
7.6058 0.4941 0.6452 0.9699
7.6123 0.7747 0.6477 0.9698
19.1295 2.6564 1.6349 0.9254
19.1810 3.3821 1.6488 0.9248
19.2456 4.1240 1.6662 0.9240
19.3241 4.8857 1.6873 0.9231
18.9094 7.8581 1.7334 0.9211
17.4890 13.2879 1.8593 0.9156
15.2780 13.4769 1.7246 0.9215
7.0683 0.4592 0.4392 0.9720
7.0719 0.7197 0.4408 0.9719
17.0809 3.6601 1.0832 0.9324
17.1261 4.3300 1.0954 0.9317
17.1797 5.0182 1.1098 0.9308
17.2421 5.7282 1.1266 0.9298
17.3604 12.2159 1.3163 0.9184
16.3443 13.3879 1.3101 0.9188
6.6072 0.9175 0.2630 0.9737
15.4774 5.7781 0.6514 0.9360
15.0400 9.0169 0.6915 0.9322
15.1118 9.8281 0.7108 0.9304
15.1924 10.6903 0.7325 0.9283
15.2827 11.6115 0.7568 0.9260
15.3841 12.6013 0.7841 0.9235
6.1955 0.6305 0.1052 0.9754
13.9617 3.5300 0.2433 0.9440
13.9826 4.6453 0.2489 0.9428
14.0100 5.8221 0.2563 0.9411
14.0382 7.0774 0.2656 0.9390
13.5281 7.4523 0.2609 0.9401
13.4810 8.7675 0.2716 0.9377
13.5728 11.1177 0.2964 0.9322
5.8518 0.3802 -0.0330 0.9768
5.8512 0.8125 -0.0333 0.9766
12.7827 3.2319 -0.0742 0.9486
12.7800 3.7331 -0.0750 0.9481
12.7769 4.2447 -0.0758 0.9476
12.7733 4.7686 -0.0768 0.9469
12.7693 5.3065 -0.0779 0.9462
12.7647 5.8605 -0.0791 0.9454
12.7596 6.4328 -0.0805 0.9444
12.7511 7.0243 -0.0820 0.9434
12.4174 7.4446 -0.0815 0.9437
12.1688 7.9141 -0.0817 0.9436
12.1614 8.5575 -0.0837 0.9423
12.1441 9.9474 -0.0884 0.9391
12.1340 10.7035 -0.0911 0.9373
5.5439 0.5642 -0.1569 0.9779
11.7756 3.4397 -0.3454 0.9521
11.7472 4.3855 -0.3531 0.9511
11.6657 6.4264 -0.3750 0.9481
11.6393 6.9781 -0.3821 0.9471
11.4363 7.4377 -0.3841 0.9469
11.0584 7.7814 -0.3807 0.9473
5.2667 0.5360 -0.2685 0.9790
5.2641 0.7310 -0.2695 0.9789
5.2607 0.9276 -0.2709 0.9788
10.9166 3.1888 -0.5768 0.9555
10.8727 4.0591 -0.5886 0.9546
10.8464 4.5074 -0.5957 0.9540
10.7840 5.4368 -0.6125 0.9528
10.7475 5.9206 -0.6223 0.9520
10.0866 7.6636 -0.6424 0.9505
10.0305 8.2161 -0.6575 0.9494
9.9689 8.7936 -0.6741 0.9482
5.0162 0.5105 -0.3697 0.9800
5.0130 0.6961 -0.3711 0.9799
10.1728 2.9715 -0.7771 0.9584
10.1471 3.3710 -0.7840 0.9580
10.0848 4.1909 -0.8007 0.9571
9.9617 5.4877 -0.8339 0.9554
9.9117 5.9424 -0.8474 0.9547
9.8569 6.4105 -0.8621 0.9539
9.7967 6.8936 -0.8783 0.9531
9.1501 8.0714 -0.8946 0.9522
4.8001 0.3118 -0.4618 0.9809
4.7974 0.4882 -0.4630 0.9808
4.7935 0.6656 -0.4646 0.9807
4.7884 0.8443 -0.4668 0.9807
4.7820 1.0247 -0.4695 0.9805
9.5475 2.4139 -0.9454 0.9612
9.4924 3.1536 -0.9603 0.9606
9.1620 5.9586 -1.0493 0.9570
9.0940 6.3991 -1.0676 0.9563
9.0198 6.8531 -1.0875 0.9555
8.9242 7.3099 -1.1075 0.9547
8.4569 7.4599 -1.0826 0.9557
4.5992 0.2988 -0.5475 0.9816
4.5961 0.4678 -0.5488 0.9816
4.5786 0.9811 -0.5562 0.9813
8.9749 2.2691 -1.0996 0.9634
8.9469 2.6134 -1.1072 0.9632
8.8781 3.3144 -1.1257 0.9625
8.7913 4.0362 -1.1491 0.9618
8.7406 4.4066 -1.1627 0.9613
8.5562 5.5646 -1.2124 0.9597
8.4032 6.3846 -1.2536 0.9584
8.2111 7.2431 -1.3006 0.9569
4.5440 0.4624 -0.6472 0.9817
8.4007 2.7909 -1.2543 0.9649
8.3620 3.1218 -1.2647 0.9646
8.2702 3.7970 -1.2894 0.9639
8.0933 4.8522 -1.3370 0.9626
7.9461 5.5914 -1.3767 0.9615
4.5730 0.2971 -0.7549 0.9816
4.5737 0.4655 -0.7574 0.9815
4.5746 0.6352 -0.7609 0.9815
4.5774 0.9808 -0.7712 0.9812
7.9755 2.3297 -1.3688 0.9669
7.8998 2.9492 -1.3891 0.9664
7.8548 3.2642 -1.4013 0.9661
7.6219 4.5695 -1.4640 0.9646
7.4704 5.2566 -1.5048 0.9636
7.2920 5.9729 -1.5528 0.9625
4.6032 0.2990 -0.8671 0.9814
4.6040 0.4686 -0.8698 0.9813
4.6065 0.8122 -0.8792 0.9811
7.5243 2.4997 -1.4903 0.9682
7.4831 2.7936 -1.5014 0.9680
7.4370 3.0906 -1.5138 0.9678
7.1994 4.3162 -1.5778 0.9664
7.1255 4.6341 -1.5977 0.9660
7.0454 4.9575 -1.6192 0.9655
6.9586 5.2870 -1.6426 0.9651
4.6362 0.6438 -0.9894 0.9810
4.6378 0.8178 -0.9955 0.9809
4.6399 0.9942 -1.0030 0.9808
7.1838 2.0984 -1.5820 0.9699
7.1469 2.3743 -1.5919 0.9697
7.1052 2.6525 -1.6031 0.9695
7.0066 3.2168 -1.6297 0.9690
6.8867 3.7937 -1.6620 0.9684
6.8182 4.0877 -1.6804 0.9680
6.3802 5.6280 -1.7984 0.9658
4.6680 0.6482 -1.1076 0.9808
6.8721 1.7375 -1.6659 0.9713
6.8396 1.9979 -1.6746 0.9711
6.7604 2.5238 -1.6960 0.9708
6.7135 2.7899 -1.7086 0.9706
6.6613 3.0583 -1.7227 0.9703
6.6038 3.3293 -1.7381 0.9701
6.3978 4.1608 -1.7936 0.9691
6.2299 4.7334 -1.8388 0.9684
6.1360 5.0261 -1.8641 0.9679
4.6980 0.3052 -1.2190 0.9807
4.7006 0.6527 -1.2288 0.9806
4.7027 0.8292 -1.2364 0.9805
6.5563 1.6576 -1.7510 0.9724
6.5238 1.9056 -1.7597 0.9723
6.4865 2.1549 -1.7697 0.9722
6.3974 2.6585 -1.7937 0.9718
6.2879 3.1700 -1.8232 0.9713
6.2250 3.4292 -1.8402 0.9711
6.0823 3.9557 -1.8786 0.9705
5.9154 4.4944 -1.9235 0.9698
5.8222 4.7690 -1.9486 0.9694
4.7312 0.3074 -1.3422 0.9805
4.7341 0.6574 -1.3531 0.9803
4.7392 1.0155 -1.3721 0.9801
6.2650 1.5840 -1.8294 0.9735
6.0546 2.7798 -1.8860 0.9727
5.9975 3.0237 -1.9014 0.9725
5.8671 3.5175 -1.9366 0.9720
5.6280 4.2760 -2.0009 0.9710
5.5358 4.5344 -2.0258 0.9707
4.7685 0.6621 -1.4808 0.9801
4.7742 1.0230 -1.5018 0.9798
5.9260 1.9687 -1.9207 0.9742
5.8378 2.4260 -1.9444 0.9739
5.6003 3.3575 -2.0084 0.9730
5.4487 3.8340 -2.0492 0.9725
5.3640 4.0755 -2.0720 0.9722
5.2730 4.3192 -2.0965 0.9719
5.1756 4.5655 -2.1227 0.9715
5.8375 0.3792 -1.9445 0.9756
5.8277 0.5931 -1.9472 0.9756
5.7719 1.2368 -1.9622 0.9754
5.7445 1.4524 -1.9696 0.9753
5.7124 1.6686 -1.9782 0.9752
5.6345 2.1035 -1.9992 0.9750
5.4812 2.7634 -2.0404 0.9745
5.4200 2.9858 -2.0569 0.9743
5.2815 3.4349 -2.0942 0.9738
5.0309 4.1209 -2.1617 0.9730
5.6026 0.3640 -2.0078 0.9764
5.5929 0.5692 -2.0104 0.9764
5.5788 0.7747 -2.0142 0.9764
5.5604 0.9804 -2.0191 0.9763
5.5377 1.1866 -2.0253 0.9762
5.5104 1.3932 -2.0326 0.9761
5.4788 1.6003 -2.0411 0.9760
5.4425 1.8081 -2.0509 0.9759
5.3914 2.0127 -2.0580 0.9758
5.3513 2.2238 -2.0723 0.9757
5.1899 2.8590 -2.1189 0.9751
5.1243 3.0721 -2.1366 0.9749
5.0534 3.2865 -2.1557 0.9747
4.8069 3.9374 -2.2220 0.9739
4.7129 4.1572 -2.2474 0.9737
5.3590 0.7442 -2.0734 0.9771
5.3408 0.9417 -2.0783 0.9770
5.3183 1.1396 -2.0843 0.9770
5.2914 1.3378 -2.0916 0.9769
5.1717 1.9307 -2.1155 0.9766
5.0347 2.5382 -2.1607 0.9761
4.9752 2.7407 -2.1767 0.9760
4.7657 3.3534 -2.2331 0.9753
4.6851 3.5596 -2.2548 0.9751
4.5988 3.7669 -2.2781 0.9749
5.1757 0.3362 -2.1227 0.9778
5.1662 0.5258 -2.1253 0.9778
5.1122 1.0954 -2.1398 0.9777
5.0857 1.2858 -2.1470 0.9776
5.0548 1.4765 -2.1553 0.9775
5.0195 1.6676 -2.1648 0.9774
4.9798 1.8591 -2.1755 0.9773
4.9354 2.0510 -2.1874 0.9772
4.8865 2.2435 -2.2006 0.9770
4.7108 2.8242 -2.2479 0.9765
4.6422 3.0191 -2.2664 0.9764
4.4048 3.6080 -2.3303 0.9757
4.3145 3.8058 -2.3546 0.9754
4.9807 0.3236 -2.1752 0.9785
4.9713 0.5059 -2.1778 0.9784
4.9578 0.6884 -2.1814 0.9784
4.9182 1.0538 -2.1921 0.9783
4.8920 1.2368 -2.1991 0.9782
4.7877 1.7874 -2.2272 0.9779
4.7441 1.9715 -2.2390 0.9778
4.6431 2.3408 -2.2662 0.9776
4.5856 2.5261 -2.2816 0.9774
4.4560 2.8980 -2.3166 0.9771
4.3836 3.0846 -2.3360 0.9769
4.7738 0.6629 -2.2309 0.9790
4.7349 1.0146 -2.2414 0.9789
4.6450 1.5432 -2.2656 0.9787
4.6065 1.7197 -2.2760 0.9786
4.5636 1.8965 -2.2876 0.9785
4.5163 2.0735 -2.3003 0.9783
4.3468 2.6060 -2.3460 0.9779
4.1340 3.1409 -2.4032 0.9774
4.0529 3.3198 -2.4251 0.9772
4.6127 0.4695 -2.2743 0.9796
4.5825 0.8080 -2.2825 0.9795
4.5613 0.9774 -2.2882 0.9794
4.5360 1.1468 -2.2950 0.9794
4.4729 1.4860 -2.3120 0.9792
4.3465 1.9955 -2.3460 0.9789
4.2402 2.3359 -2.3746 0.9787
3.9719 3.0178 -2.4469 0.9780
3.8927 3.1885 -2.4682 0.9778
3.8083 3.3593 -2.4910 0.9776
4.4560 0.2895 -2.3165 0.9801
4.4470 0.4526 -2.3190 0.9801
4.3965 0.9421 -2.3326 0.9799
4.3427 1.2685 -2.3470 0.9798
4.3097 1.4317 -2.3559 0.9797
4.2726 1.5950 -2.3659 0.9797
4.1856 1.9217 -2.3893 0.9795
4.1358 2.0850 -2.4028 0.9793
3.9594 2.5750 -2.4503 0.9789
3.8189 2.9015 -2.4881 0.9786
4.2981 0.2792 -2.3591 0.9805
4.2893 0.4365 -2.3614 0.9805
4.2767 0.5939 -2.3648 0.9805
4.2601 0.7512 -2.3693 0.9805
4.2397 0.9085 -2.3748 0.9804
4.2153 1.0657 -2.3814 0.9804
4.1869 1.2230 -2.3890 0.9803
4.1545 1.3802 -2.3977 0.9802
4.1181 1.5374 -2.4075 0.9802
4.0329 1.8515 -2.4305 0.9800
3.9840 2.0085 -2.4437 0.9799
3.9308 2.1654 -2.4580 0.9797
3.8733 2.3221 -2.4735 0.9796
3.6739 2.7914 -2.5271 0.9792
4.1475 0.2694 -2.3996 0.9810
4.1102 0.7247 -2.4096 0.9809
4.0902 0.8764 -2.4151 0.9809
4.0662 1.0281 -2.4215 0.9808
4.0384 1.1796 -2.4290 0.9808
3.9709 1.4825 -2.4472 0.9806
3.8395 1.9357 -2.4825 0.9803
3.7312 2.2370 -2.5117 0.9801
3.5364 2.6869 -2.5642 0.9797
3.4625 2.8361 -2.5841 0.9795
