ply
format ascii 1.0
element vertex 296
property float32 x
property float32 y
property float32 z
property float32 I
end_header
22.6479 32.7940 7.0274 0.8505
22.1753 34.7121 7.2630 0.8459
11.1449 30.2474 5.6839 0.8773
7.0629 33.2380 5.9916 0.8711
22.7781 32.9826 6.1406 0.8503
14.3944 31.8182 5.3500 0.8682
11.1528 30.2690 4.9418 0.8776
11.0320 33.6151 5.4199 0.8666
8.1706 32.6393 5.1544 0.8727
7.1261 33.5355 5.2522 0.8705
23.0140 33.3241 5.2738 0.8493
9.9884 30.4351 4.1713 0.8788
7.2127 33.9432 4.5188 0.8694
9.1934 31.8269 3.5573 0.8752
19.0943 23.7958 2.5827 0.8847
18.4630 24.7819 2.6161 0.8833
19.1241 23.8329 1.8949 0.8847
17.8178 23.9157 1.8494 0.8873
15.2418 28.1223 1.9835 0.8797
12.3488 33.5147 2.2148 0.8666
9.8897 13.2744 0.6527 0.9359
16.5913 24.0240 1.1512 0.8897
14.7549 27.2239 1.2210 0.8834
14.8459 29.9076 1.3166 0.8749
14.8316 32.7846 1.4189 0.8658
2.1598 15.6017 0.6211 0.9389
9.8904 13.2753 0.2796 0.9359
9.9306 34.3789 0.6045 0.8666
10.3213 41.2302 0.7180 0.8436
9.8911 13.2762 -0.0932 0.9359
10.1244 18.6803 -0.1196 0.9185
10.1372 20.4218 -0.1284 0.9128
9.9561 22.0074 -0.1360 0.9079
10.2533 31.2422 -0.1851 0.8768
10.6868 13.3181 -0.4808 0.9340
9.9647 13.3750 -0.4696 0.9354
10.1897 14.7546 -0.5049 0.9308
10.4681 19.3146 -0.6186 0.9158
10.3352 20.8208 -0.6545 0.9112
9.8039 26.6080 -0.7985 0.8927
7.9964 45.6326 -1.3044 0.8308
9.5873 11.9479 -0.7769 0.9405
9.3091 14.5720 -0.8769 0.9331
8.9703 18.0711 -1.0232 0.9224
8.2683 22.4404 -1.2129 0.9087
7.1967 28.7485 -1.5029 0.8881
6.7053 31.5551 -1.6360 0.8788
5.3881 38.9222 -1.9927 0.8544
4.4897 44.0164 -2.2438 0.8376
-0.5772 7.3944 -0.3762 0.9707
8.5676 11.4998 -1.0515 0.9441
8.4321 12.2096 -1.0880 0.9422
8.2831 12.9658 -1.1281 0.9402
8.0091 14.7774 -1.2324 0.9348
7.8402 15.7945 -1.2929 0.9317
6.8207 20.7829 -1.6038 0.9160
6.4496 22.3282 -1.7041 0.9110
6.0244 24.0655 -1.8190 0.9053
4.9599 28.3051 -2.1070 0.8911
2.9367 28.7907 -2.1220 0.8904
2.4871 37.7800 -2.7761 0.8591
1.2643 42.3616 -3.1073 0.8437
-0.2942 48.3536 -3.5455 0.8237
-0.5720 7.3277 -0.5389 0.9710
7.8112 10.4845 -1.2552 0.9488
6.7568 14.9357 -1.5738 0.9362
6.2563 16.9641 -1.7342 0.9299
5.9614 18.1635 -1.8352 0.9261
5.5939 19.3654 -1.9352 0.9222
5.1786 20.6871 -2.0474 0.9179
4.7080 22.1554 -2.1745 0.9130
2.8276 20.4259 -1.9797 0.9205
2.8339 27.7832 -2.6812 0.8938
1.9906 30.2377 -2.9093 0.8854
0.9880 33.1131 -3.1804 0.8754
-0.2223 36.5365 -3.5077 0.8634
-0.3094 7.3632 -0.7075 0.9708
-0.5715 7.3205 -0.7049 0.9709
6.8553 10.7310 -1.5126 0.9500
6.2609 12.6129 -1.6727 0.9449
6.0247 13.3173 -1.7363 0.9428
5.7885 14.1249 -1.8133 0.9404
5.2404 15.9670 -1.9961 0.9345
4.0947 19.2698 -2.3401 0.9237
1.6582 25.1874 -2.9984 0.9033
0.8103 27.1598 -3.2276 0.8963
-0.3091 7.3559 -0.8746 0.9708
6.7758 8.4441 -1.5340 0.9572
6.6318 8.9014 -1.5728 0.9561
6.4761 9.3773 -1.6147 0.9550
5.4786 12.1103 -1.8833 0.9477
5.2239 12.7472 -1.9519 0.9459
4.6626 14.2071 -2.1186 0.9414
2.9520 13.8923 -2.0123 0.9442
2.6440 19.0991 -2.7319 0.9251
1.4199 21.5683 -3.0626 0.9164
0.6863 23.0034 -3.2608 0.9112
-0.5703 7.3060 -1.0383 0.9708
6.0063 8.6971 -1.7412 0.9581
5.8382 9.1388 -1.7865 0.9570
5.4611 10.0761 -1.8881 0.9546
5.2495 10.5754 -1.9450 0.9533
5.0207 11.0979 -2.0067 0.9518
4.7727 11.6461 -2.0734 0.9503
4.2110 12.8310 -2.2247 0.9467
3.8929 13.4768 -2.3109 0.9447
2.7868 15.9031 -2.6598 0.9366
2.3225 16.7769 -2.7902 0.9336
1.2405 18.8437 -3.1110 0.9263
0.5948 19.9345 -3.2855 0.9223
-0.1285 21.1290 -3.4808 0.9179
-0.9431 22.4454 -3.7009 0.9130
5.7521 7.7207 -1.8097 0.9616
5.4310 8.5014 -1.8962 0.9598
5.2523 8.9115 -1.9443 0.9588
5.0601 9.3363 -1.9960 0.9577
4.8533 9.7773 -2.0517 0.9565
4.6307 10.2359 -2.1117 0.9553
4.1315 11.2129 -2.2461 0.9525
3.8514 11.7353 -2.3215 0.9510
3.2193 12.8599 -2.4917 0.9475
2.8420 13.3743 -2.5700 0.9459
2.0693 14.9480 -2.8364 0.9404
1.6081 15.7651 -2.9786 0.9375
0.5238 17.4843 -3.2873 0.9313
-0.1125 18.4954 -3.4765 0.9275
-0.3092 7.3595 -1.3845 0.9705
-1.6065 20.5803 -3.8800 0.9194
5.7841 7.2082 -1.9536 0.9629
5.4789 7.3539 -1.9385 0.9632
5.2376 7.5840 -1.9482 0.9630
4.8989 8.3120 -2.0394 0.9613
4.7113 8.6926 -2.0900 0.9604
4.5101 9.0858 -2.1441 0.9594
3.8137 10.3505 -2.3317 0.9559
3.5460 10.8048 -2.4038 0.9546
2.6112 12.2883 -2.6555 0.9499
1.4326 14.0451 -2.9843 0.9439
0.9718 14.7617 -3.1271 0.9413
0.4634 15.5300 -3.2842 0.9385
-0.3082 7.3356 -1.5520 0.9704
-1.4050 17.9976 -3.8159 0.9289
5.4535 6.7962 -2.0479 0.9648
4.7583 7.4485 -2.0773 0.9643
4.5873 7.7833 -2.1233 0.9636
4.2095 8.4802 -2.2251 0.9618
3.7777 9.2182 -2.3414 0.9599
3.5389 9.6047 -2.4057 0.9588
3.0091 10.4171 -2.5484 0.9564
2.7149 10.8454 -2.6276 0.9551
1.2991 12.7362 -3.0088 0.9488
0.8734 13.2673 -3.1249 0.9468
-0.0881 14.4892 -3.4054 0.9422
3.9439 7.9451 -2.2966 0.9640
3.5277 8.6081 -2.4087 0.9623
3.2987 8.9527 -2.4704 0.9613
3.0544 9.3068 -2.5362 0.9603
1.8982 10.8326 -2.8475 0.9556
0.7976 12.1161 -3.1439 0.9511
0.3752 12.5761 -3.2576 0.9493
-1.1030 14.1300 -3.6697 0.9431
4.8730 6.0728 -2.2042 0.9681
4.5820 6.6347 -2.2826 0.9670
4.4202 6.9192 -2.3244 0.9664
3.7072 7.4683 -2.3604 0.9659
2.6048 9.0177 -2.6572 0.9617
1.7590 10.0380 -2.8850 0.9585
1.0979 10.7639 -3.0630 0.9560
-0.0726 11.9330 -3.3782 0.9516
-0.5188 12.3468 -3.4984 0.9499
-0.9972 12.7739 -3.6272 0.9481
4.4847 6.0195 -2.3088 0.9691
4.3384 6.2820 -2.3482 0.9686
4.1832 6.5482 -2.3900 0.9680
3.5769 7.2058 -2.4744 0.9669
3.3074 7.3107 -2.4680 0.9670
3.1087 7.5857 -2.5215 0.9663
2.8981 7.8654 -2.5782 0.9655
2.1868 8.7356 -2.7698 0.9630
1.3369 9.6571 -2.9987 0.9600
0.6783 10.3035 -3.1760 0.9577
0.3174 10.6371 -3.2732 0.9564
-0.0668 10.9780 -3.3767 0.9551
-0.4759 11.3264 -3.4868 0.9537
-0.9120 11.6826 -3.6043 0.9521
4.1165 5.9607 -2.4080 0.9699
3.9657 6.2077 -2.4486 0.9694
3.6369 6.7104 -2.5371 0.9683
3.2418 7.1659 -2.6144 0.9674
2.7290 7.4065 -2.6238 0.9673
2.5153 7.6642 -2.6813 0.9666
1.7975 8.4590 -2.8746 0.9642
0.6302 9.5729 -3.1890 0.9604
-0.0447 7.3415 -2.4404 0.9695
4.0520 5.4387 -2.4253 0.9716
3.9134 5.6665 -2.4627 0.9712
3.7668 5.8964 -2.5021 0.9707
3.4483 6.3623 -2.5879 0.9697
3.2755 6.5986 -2.6344 0.9692
2.6207 7.1126 -2.7107 0.9683
2.3718 7.2268 -2.7200 0.9682
1.9282 7.7024 -2.8394 0.9668
1.6880 7.9436 -2.9041 0.9661
0.5879 8.9300 -3.2004 0.9627
0.2740 9.1817 -3.2849 0.9617
-0.4071 9.6901 -3.4683 0.9596
3.9887 4.9708 -2.4424 0.9731
3.5842 5.6104 -2.5513 0.9719
3.4340 5.8264 -2.5918 0.9714
3.2756 6.0438 -2.6344 0.9710
3.1087 6.2626 -2.6794 0.9705
2.9328 6.4828 -2.7267 0.9700
2.7469 6.7028 -2.7760 0.9694
2.5488 6.9175 -2.8252 0.9689
2.0389 7.0584 -2.8155 0.9690
1.8181 7.2627 -2.8691 0.9684
1.5896 7.4804 -2.9306 0.9678
1.0962 7.9185 -3.0635 0.9663
-0.3791 9.0228 -3.4608 0.9621
3.6848 4.9458 -2.5242 0.9737
3.5538 5.1458 -2.5595 0.9733
3.2701 5.5484 -2.6359 0.9725
3.1169 5.7509 -2.6772 0.9721
2.9556 5.9541 -2.7206 0.9717
2.4200 6.5680 -2.8648 0.9702
1.2720 7.2588 -3.0161 0.9687
1.0322 7.4562 -3.0807 0.9680
0.7806 7.6531 -3.1485 0.9673
-0.6731 8.6230 -3.5399 0.9633
3.6416 4.5382 -2.5359 0.9749
3.5209 4.7258 -2.5684 0.9746
3.3936 4.9139 -2.6026 0.9743
2.8144 5.6697 -2.7586 0.9728
2.2986 6.2384 -2.8975 0.9714
2.1096 6.4279 -2.9484 0.9709
1.4784 6.9575 -3.0999 0.9694
0.9742 7.0375 -3.0963 0.9695
0.7359 7.2145 -3.1605 0.9689
0.2166 7.2592 -3.1651 0.9688
3.3681 4.5208 -2.6095 0.9755
3.2445 4.6979 -2.6428 0.9751
3.1144 4.8752 -2.6778 0.9748
2.9778 5.0523 -2.7146 0.9745
2.5257 5.5829 -2.8364 0.9734
2.3601 5.7590 -2.8809 0.9729
2.0052 6.1098 -2.9765 0.9721
1.6165 6.4573 -3.0812 0.9711
1.4078 6.6250 -3.1351 0.9706
0.7010 6.8726 -3.1978 0.9700
0.2127 7.1290 -3.3014 0.9691
-0.3122 7.4310 -3.4428 0.9677
3.3393 4.1615 -2.6173 0.9765
3.2252 4.3289 -2.6480 0.9762
2.9790 4.6631 -2.7143 0.9756
2.8466 4.8297 -2.7499 0.9753
2.7076 4.9958 -2.7874 0.9750
2.5621 5.1614 -2.8266 0.9747
2.4096 5.3263 -2.8676 0.9743
1.9087 5.8158 -3.0025 0.9731
1.7264 5.9767 -3.0516 0.9727
1.1303 6.4501 -3.2121 0.9712
3.0911 4.1490 -2.6841 0.9770
2.9745 4.3071 -2.7155 0.9767
2.8522 4.4646 -2.7484 0.9764
2.5894 4.7777 -2.8192 0.9758
2.4487 4.9330 -2.8571 0.9755
2.3015 5.0874 -2.8967 0.9752
1.9869 5.3926 -2.9814 0.9744
1.4618 5.8394 -3.1228 0.9732
1.2717 5.9846 -3.1740 0.9728
0.8677 6.2682 -3.2828 0.9719
0.1987 6.6607 -3.4570 0.9704
-0.2821 6.7128 -3.4855 0.9702
-0.5251 6.7263 -3.5001 0.9701
3.0727 3.8293 -2.6890 0.9779
2.9649 3.9796 -2.7181 0.9776
2.7331 4.2782 -2.7805 0.9771
2.3426 4.7192 -2.8857 0.9763
2.0521 5.0073 -2.9639 0.9756
1.5678 5.4277 -3.0943 0.9746
1.3928 5.5639 -3.1414 0.9742
1.2108 5.6979 -3.1904 0.9738
1.0215 5.8294 -3.2414 0.9734
0.8248 5.9581 -3.2944 0.9729
0.4086 6.2061 -3.4065 0.9720
-0.2748 6.5402 -3.5852 0.9706
-0.5184 6.6411 -3.6484 0.9701
2.7360 3.9617 -2.7797 0.9780
2.6209 4.1026 -2.8107 0.9778
2.1057 4.6545 -2.9495 0.9767
1.8134 4.9215 -3.0282 0.9761
1.6581 5.0522 -3.0700 0.9757
1.3286 5.3073 -3.1587 0.9750
0.9729 5.5524 -3.2545 0.9743
0.3882 5.8969 -3.4120 0.9731
-0.4916 6.2980 -3.6472 0.9712
