ply
format ascii 1.0
element vertex 295
property float32 x
property float32 y
property float32 z
property float32 I
end_header
14.1512 30.5174 5.9314 0.8723
11.5994 30.5932 5.7691 0.8756
7.8354 30.0928 5.4831 0.8813
7.0214 31.5731 5.7032 0.8769
-0.9599 6.8053 1.2118 0.9725
13.1800 31.3219 5.2058 0.8715
11.3514 29.9391 4.9051 0.8785
9.5833 32.0424 5.1235 0.8734
8.1736 31.3915 4.9693 0.8770
7.5783 34.0774 3.7487 0.8690
-1.1755 8.3336 0.9037 0.9667
1.9421 25.7622 1.6021 0.9016
-0.6578 6.2876 0.3920 0.9750
14.7183 31.7403 1.3796 0.8693
14.9348 35.4920 1.5184 0.8571
12.6973 33.4888 1.4122 0.8664
-0.7090 6.7777 0.2687 0.9731
-13.5997 41.0929 1.7068 0.8409
9.8653 21.2745 0.3961 0.9105
9.8758 23.4695 0.4301 0.9032
9.8300 25.9261 0.4684 0.8950
9.9062 29.2535 0.5217 0.8838
9.9259 33.1877 0.5851 0.8706
9.8906 37.9855 0.6631 0.8547
10.1382 45.5883 0.7889 0.8296
-0.7415 7.0881 0.1204 0.9719
10.1776 24.1867 -0.1477 0.9004
10.2065 26.9191 -0.1621 0.8912
10.0382 29.6436 -0.1762 0.8823
10.0823 33.7105 -0.1981 0.8687
10.2149 45.9329 -0.2649 0.8284
2.3107 15.6020 -0.0888 0.9389
-0.7722 7.3817 -0.0418 0.9707
9.0286 34.6750 -1.0089 0.8664
8.6243 38.7805 -1.1187 0.8530
8.8213 19.0232 -1.0634 0.9194
7.7085 25.7738 -1.3643 0.8979
7.3121 28.0827 -1.4717 0.8903
6.8432 30.7715 -1.5987 0.8814
6.2808 33.9505 -1.7510 0.8709
5.5949 37.7770 -1.9367 0.8582
3.0884 40.9682 -2.0836 0.8483
7.6952 16.5885 -1.3400 0.9293
7.4927 17.8058 -1.4164 0.9254
6.9101 20.4059 -1.5797 0.9172
6.1420 23.5884 -1.7872 0.9069
5.6696 25.4944 -1.9150 0.9006
5.1200 27.6760 -2.0637 0.8933
2.8578 25.6077 -1.8893 0.9018
2.7682 36.7204 -2.7001 0.8627
1.6159 41.0451 -3.0119 0.8481
6.8073 14.6800 -1.5535 0.9370
6.5898 15.6602 -1.6311 0.9340
5.6946 19.0401 -1.9079 0.9232
4.8377 21.7535 -2.1395 0.9143
4.3192 23.3476 -2.2795 0.9090
1.2718 32.3032 -3.1037 0.8782
-1.2819 39.5015 -3.7943 0.8532
-0.7625 7.2893 -0.7036 0.9710
4.6362 17.8059 -2.1856 0.9286
4.2165 18.9600 -2.3072 0.9247
2.5695 23.0256 -2.7521 0.9109
1.8625 24.7066 -2.9431 0.9050
-0.5013 7.3246 -0.8721 0.9709
-5.9416 42.1235 -5.0532 0.8425
5.5414 11.9502 -1.8664 0.9482
4.7374 13.9898 -2.0928 0.9421
4.4398 14.8445 -2.1954 0.9393
2.8201 12.6812 -1.8407 0.9489
2.5514 13.7915 -1.9873 0.9449
2.2267 19.9529 -2.8447 0.9221
1.5992 21.2130 -3.0142 0.9176
0.8902 22.6076 -3.2057 0.9126
-0.5008 7.3173 -1.0392 0.9708
-8.5446 39.7150 -5.7560 0.8486
-11.2132 44.3183 -6.4773 0.8314
5.0821 10.9595 -1.9901 0.9522
4.2900 12.6686 -2.2034 0.9472
3.9785 13.3022 -2.2873 0.9453
3.6500 14.0182 -2.3863 0.9430
2.8688 12.9001 -2.1771 0.9478
2.4453 13.2181 -2.2145 0.9470
2.4474 16.5249 -2.7520 0.9345
1.9561 17.5103 -2.9020 0.9311
1.4000 18.5703 -3.0679 0.9273
0.7731 19.6358 -3.2373 0.9234
-0.7166 22.0821 -3.6397 0.9143
-2.6240 25.0847 -4.1550 0.9028
-6.7177 31.2234 -5.2614 0.8786
-8.5856 33.9332 -5.7663 0.8677
-13.5633 40.9829 -7.1116 0.8395
4.4550 10.5872 -2.1590 0.9543
4.2011 11.0803 -2.2273 0.9529
3.6300 12.1371 -2.3811 0.9497
2.5859 13.9780 -2.6719 0.9438
2.1827 14.7379 -2.8004 0.9412
1.7361 15.5564 -2.9421 0.9383
0.0618 18.2198 -3.4249 0.9285
-0.6237 19.2203 -3.6146 0.9247
-4.2903 24.1212 -4.6050 0.9051
-5.5270 25.6896 -4.9391 0.8986
-8.5871 29.4508 -5.7661 0.8826
4.3520 9.3851 -2.1867 0.9586
4.1247 9.8021 -2.2479 0.9575
3.8805 10.2347 -2.3137 0.9562
3.6180 10.6841 -2.3844 0.9549
3.0308 11.6400 -2.5425 0.9520
2.7020 12.1501 -2.6310 0.9504
1.9617 13.2456 -2.8304 0.9467
1.5477 13.8689 -2.9498 0.9445
0.0556 16.0777 -3.3985 0.9364
-0.5469 16.8529 -3.5642 0.9334
-3.6779 20.6780 -4.4395 0.9177
-4.6895 21.7965 -4.7128 0.9129
-7.1048 24.3673 -5.3652 0.9014
-8.5582 25.8601 -5.7578 0.8946
4.0566 8.7480 -2.2663 0.9612
3.6029 9.5025 -2.3884 0.9591
3.0828 10.3074 -2.5285 0.9568
2.7942 10.7314 -2.6062 0.9555
2.4843 11.1713 -2.6897 0.9541
1.7928 12.1046 -2.8759 0.9510
1.4063 12.6013 -2.9800 0.9492
0.9891 13.1198 -3.0922 0.9474
0.5389 13.6890 -3.2197 0.9453
0.0495 14.3120 -3.3637 0.9429
-1.0723 15.7224 -3.7028 0.9373
-4.0671 18.9045 -4.5446 0.9236
-5.0084 19.7950 -4.7989 0.9195
-6.0510 20.7529 -5.0805 0.9150
-7.2106 21.7877 -5.3938 0.9100
3.7961 8.1864 -2.3364 0.9634
3.1199 9.2132 -2.5185 0.9606
2.8636 9.5746 -2.5875 0.9595
1.9843 10.7261 -2.8243 0.9559
1.6492 11.1352 -2.9146 0.9546
0.4902 12.4524 -3.2267 0.9498
0.0446 12.9254 -3.3466 0.9480
-0.2382 7.3392 -1.9013 0.9701
-0.9567 13.9779 -3.6276 0.9438
-1.5248 14.5757 -3.7945 0.9412
-2.1462 15.2159 -3.9787 0.9385
-5.2421 17.9788 -4.8489 0.9255
3.5646 7.6871 -2.3988 0.9654
3.3614 7.9883 -2.4535 0.9646
2.9157 8.6103 -2.5735 0.9629
2.6715 8.9320 -2.6393 0.9620
2.1347 9.5991 -2.7838 0.9599
1.1903 10.6657 -3.0381 0.9564
0.8324 11.0411 -3.1345 0.9550
0.4499 11.4274 -3.2375 0.9536
0.0408 11.8253 -3.3477 0.9520
-0.3971 12.2355 -3.4656 0.9504
-0.8664 12.6587 -3.5920 0.9486
-1.3710 13.1058 -3.7304 0.9467
-1.9152 13.5778 -3.8818 0.9446
-2.5031 14.0733 -4.0466 0.9423
-3.1440 14.6131 -4.2315 0.9398
-4.6030 15.7869 -4.6553 0.9339
2.9543 7.7919 -2.5631 0.9657
2.7345 8.0752 -2.6223 0.9649
1.9919 8.9569 -2.8223 0.9623
1.7135 9.2623 -2.8972 0.9613
1.1039 9.8918 -3.0614 0.9592
0.4153 10.5480 -3.2468 0.9568
-0.7930 11.5869 -3.5722 0.9526
-1.2500 11.9489 -3.6953 0.9510
-1.7376 12.3191 -3.8266 0.9493
-3.4195 13.5152 -4.2880 0.9433
3.0138 7.1622 -2.5829 0.9678
2.7829 7.3398 -2.6093 0.9675
2.5724 7.5964 -2.6659 0.9668
2.3498 7.8566 -2.7259 0.9660
2.1144 8.1205 -2.7893 0.9652
1.6020 8.6594 -2.9273 0.9636
1.3233 8.9347 -3.0023 0.9626
0.7160 9.4971 -3.1659 0.9606
0.0348 10.0759 -3.3493 0.9584
-0.3366 10.3713 -3.4493 0.9572
-0.7303 10.6708 -3.5553 0.9559
-1.1480 10.9743 -3.6678 0.9546
-2.0619 11.5926 -3.9139 0.9516
-2.5618 11.9070 -4.0485 0.9500
3.1404 6.7724 -2.6696 0.9688
2.9470 7.0035 -2.7172 0.9682
1.9892 7.6394 -2.8230 0.9670
1.7524 7.8800 -2.8868 0.9663
1.2393 8.3676 -3.0249 0.9647
-1.0602 10.1351 -3.6442 0.9576
-1.8945 10.6515 -3.8688 0.9551
-2.8256 11.1679 -4.1196 0.9522
-3.3312 11.4248 -4.2557 0.9507
-3.8654 11.6798 -4.3996 0.9491
2.9795 6.4253 -2.7141 0.9701
2.1113 7.0594 -2.8237 0.9689
1.4136 7.6413 -2.9780 0.9673
1.1642 7.8605 -3.0452 0.9665
0.9018 8.0805 -3.1158 0.9658
0.6258 8.3011 -3.1901 0.9650
0.3355 8.5220 -3.2683 0.9641
0.0251 7.2627 -2.7832 0.9694
-0.9838 9.4044 -3.6236 0.9603
-1.7501 9.8397 -3.8300 0.9581
-2.1632 10.0544 -3.9412 0.9569
-2.5975 10.2661 -4.0581 0.9557
-3.5339 10.6781 -4.3103 0.9530
2.8309 6.1049 -2.7542 0.9713
2.4699 6.5143 -2.8514 0.9703
2.0680 6.9144 -2.9537 0.9693
1.8261 7.0131 -2.9660 0.9692
1.5588 7.0095 -2.9389 0.9694
1.0966 7.4041 -3.0634 0.9682
0.5878 7.7975 -3.2004 0.9668
0.3147 7.9931 -3.2739 0.9660
0.0250 7.2471 -2.9661 0.9692
-0.9166 8.7616 -3.6055 0.9626
-1.2622 8.9483 -3.6986 0.9617
-1.6242 9.1317 -3.7960 0.9607
-2.4003 9.4867 -4.0050 0.9586
-2.8157 9.6569 -4.1169 0.9575
-3.2503 9.8211 -4.2339 0.9563
2.3465 6.1889 -2.8846 0.9715
1.9642 6.5675 -2.9875 0.9705
1.7574 6.7495 -3.0396 0.9700
1.5412 6.9304 -3.0942 0.9695
1.2851 6.9462 -3.0787 0.9696
0.7999 7.1678 -3.1433 0.9690
0.5536 7.3437 -3.2096 0.9684
0.0250 7.2312 -3.1515 0.9689
-0.2551 7.8601 -3.4274 0.9663
-0.5494 8.0273 -3.5066 0.9655
-0.8569 8.1914 -3.5894 0.9647
-1.1780 8.3518 -3.6759 0.9639
-2.6083 8.9458 -4.0611 0.9602
-3.0046 9.0789 -4.1678 0.9591
2.4040 5.7131 -2.8691 0.9730
2.2328 5.8889 -2.9152 0.9726
1.4637 6.5815 -3.1209 0.9707
0.5226 6.9323 -3.2179 0.9698
0.2791 7.0881 -3.2835 0.9692
-1.4147 7.9542 -3.7396 0.9650
-1.7390 8.0826 -3.8270 0.9642
2.4500 5.2834 -2.8567 0.9744
2.2924 5.4477 -2.8992 0.9740
2.1275 5.6111 -2.9436 0.9736
1.9551 5.7735 -2.9900 0.9732
1.5869 6.0945 -3.0892 0.9723
1.3905 6.2527 -3.1420 0.9719
0.7483 6.7055 -3.3096 0.9704
0.2679 6.8035 -3.3399 0.9701
0.0236 6.8341 -3.3523 0.9700
-0.4857 7.0971 -3.4895 0.9688
-0.7555 7.2225 -3.5621 0.9682
-1.0357 7.3430 -3.6376 0.9675
-1.3266 7.4583 -3.7159 0.9668
-1.6282 7.5678 -3.7971 0.9661
-2.5997 7.8553 -4.0587 0.9638
2.3405 5.0472 -2.8862 0.9752
2.1884 5.2007 -2.9272 0.9749
1.8638 5.5039 -3.0146 0.9742
1.6908 5.6533 -3.0612 0.9738
1.1267 6.0902 -3.2131 0.9725
0.9229 6.2314 -3.2680 0.9720
0.7109 6.3698 -3.3251 0.9715
0.4901 6.5009 -3.3821 0.9710
0.2609 6.6277 -3.4410 0.9706
0.0233 6.7424 -3.4978 0.9701
-0.4585 6.6995 -3.4837 0.9702
-1.2471 7.0115 -3.6945 0.9684
-1.5286 7.1051 -3.7703 0.9678
-2.1203 7.2720 -3.9296 0.9664
-2.4305 7.3441 -4.0132 0.9657
2.2380 4.8264 -2.9138 0.9760
2.0914 4.9700 -2.9533 0.9757
1.9383 5.1123 -2.9945 0.9754
1.0721 5.7950 -3.2278 0.9735
0.8774 5.9244 -3.2802 0.9731
0.2478 6.2937 -3.4498 0.9717
0.0221 6.4057 -3.5085 0.9712
-0.4527 6.6146 -3.6314 0.9702
-1.4386 6.6866 -3.7461 0.9693
-1.7104 6.7602 -3.8193 0.9687
-1.9905 6.8266 -3.8947 0.9681
-2.2787 6.8854 -3.9723 0.9675
2.1420 4.6192 -2.9397 0.9768
1.8529 4.8870 -3.0175 0.9761
1.3733 5.2743 -3.1467 0.9751
1.2006 5.3988 -3.1932 0.9748
1.0213 5.5207 -3.2415 0.9744
0.8353 5.6396 -3.2916 0.9740
-0.2006 6.1810 -3.5705 0.9718
-0.9086 6.4415 -3.7558 0.9704
-1.3993 6.5037 -3.8409 0.9697
-1.8765 6.4359 -3.8705 0.9695
-2.1416 6.4711 -3.9354 0.9690
