ply
format ascii 1.0
element vertex 267
property float32 x
property float32 y
property float32 z
property float32 I
end_header
40.9179 -14.5948 7.6602 0.8382
41.2332 -13.0412 7.6255 0.8389
39.9443 -9.5103 7.2401 0.8464
39.3036 -7.8628 7.0676 0.8498
38.7924 -6.3061 6.9299 0.8525
37.8356 -0.6046 6.6723 0.8575
38.1398 3.5535 6.7542 0.8559
32.9744 -11.7615 5.3632 0.8679
30.6063 -3.8414 4.7255 0.8827
30.3442 -1.5876 4.6549 0.8843
30.2945 -0.4841 4.6415 0.8846
30.3537 1.7201 4.6575 0.8842
30.4635 2.8383 4.6871 0.8835
30.6291 3.9793 4.7316 0.8825
31.1404 6.3703 4.8693 0.8793
26.8364 -9.5722 3.7103 0.8914
26.2085 -7.2543 3.5412 0.8961
25.9654 -6.1821 3.4758 0.8979
25.4729 -3.1971 3.3431 0.9016
25.3793 -2.2536 3.3179 0.9023
25.3182 -1.3246 3.3015 0.9028
25.2888 -0.4041 3.2936 0.9030
25.2907 0.5139 3.2941 0.9030
25.4864 3.3112 3.3468 0.9015
25.7858 5.2749 3.4274 0.8993
22.4458 -7.0992 2.5279 0.9096
22.0082 -4.4028 2.4101 0.9137
21.8325 -2.7402 2.3628 0.9153
21.7208 -0.3471 2.3327 0.9163
21.7219 0.4413 2.3330 0.9163
21.7421 1.2321 2.3384 0.9161
21.7815 2.0294 2.3491 0.9158
21.8407 2.8375 2.3650 0.9152
22.0214 4.5048 2.4137 0.9135
19.5999 -6.9910 1.7616 0.9199
19.4814 -6.1616 1.7297 0.9213
19.3794 -5.3641 1.7022 0.9225
19.2926 -4.5934 1.6788 0.9235
19.1607 -3.1148 1.6433 0.9250
19.1141 -2.3990 1.6308 0.9256
7.6042 -0.3978 0.6446 0.9699
7.6016 -0.1215 0.6436 0.9699
7.6017 0.1544 0.6436 0.9699
7.6048 0.4310 0.6448 0.9699
7.6106 0.7091 0.6471 0.9698
19.1190 2.4839 1.6321 0.9255
17.2840 -6.1650 1.1379 0.9291
17.1579 -4.7492 1.1040 0.9311
17.1080 -4.0732 1.0905 0.9319
17.0661 -3.4141 1.0792 0.9326
17.0318 -2.7687 1.0700 0.9332
7.0673 -0.3698 0.4388 0.9720
7.0657 0.1436 0.4382 0.9721
17.0355 2.8452 1.0710 0.9331
15.4621 -5.5151 0.6473 0.9364
15.4277 -4.8795 0.6380 0.9373
15.3978 -4.2620 0.6300 0.9380
15.3506 -3.0709 0.6173 0.9393
15.3330 -2.4925 0.6125 0.9397
6.6061 -0.8292 0.2625 0.9737
6.6022 -0.3454 0.2607 0.9739
6.6015 -0.1055 0.2603 0.9739
6.6065 0.8583 0.2627 0.9737
15.3349 2.5612 0.6130 0.9397
15.3530 3.1407 0.6179 0.9392
13.9901 -4.9901 0.2509 0.9423
13.9584 -3.3233 0.2424 0.9442
13.9446 -2.2668 0.2386 0.9450
6.1951 -0.0990 0.1047 0.9755
6.1951 0.1259 0.1047 0.9755
6.1950 0.3511 0.1048 0.9755
6.1961 0.8050 0.1055 0.9753
13.9452 2.3291 0.2388 0.9450
13.9516 2.8540 0.2406 0.9446
12.7748 -4.5566 -0.0764 0.9472
12.7836 -3.0437 -0.0740 0.9488
5.8517 -0.5196 -0.0331 0.9768
5.8519 -0.3062 -0.0330 0.9768
5.8520 -0.0935 -0.0330 0.9769
5.8519 0.3316 -0.0330 0.9768
5.8516 0.5452 -0.0331 0.9768
11.7535 -4.1923 -0.3514 0.9513
11.8001 -2.3606 -0.3388 0.9530
5.5430 -0.6957 -0.1573 0.9779
5.5444 -0.4923 -0.1567 0.9780
5.5453 -0.2901 -0.1564 0.9780
5.5458 -0.0886 -0.1562 0.9780
5.5452 0.3142 -0.1564 0.9780
5.5428 0.7201 -0.1574 0.9779
11.7991 2.4137 -0.3391 0.9530
10.8825 -3.8816 -0.5859 0.9548
10.9045 -3.4489 -0.5800 0.9552
10.9404 -2.6048 -0.5703 0.9560
5.2620 -0.8554 -0.2704 0.9789
5.2651 -0.6608 -0.2691 0.9790
5.2675 -0.4677 -0.2682 0.9790
5.2690 -0.2757 -0.2676 0.9791
5.2696 0.1071 -0.2673 0.9791
5.2648 0.6840 -0.2692 0.9790
5.2616 0.8788 -0.2705 0.9789
10.9529 2.2406 -0.5670 0.9562
10.1300 -3.6132 -0.7886 0.9578
10.1818 -2.8182 -0.7746 0.9585
5.0055 -1.0014 -0.3743 0.9797
5.0104 -0.8145 -0.3722 0.9798
5.0143 -0.6293 -0.3705 0.9799
5.0199 -0.0802 -0.3681 0.9801
5.0199 0.1020 -0.3681 0.9801
5.0189 0.2844 -0.3686 0.9800
5.0139 0.6514 -0.3707 0.9799
5.0098 0.8367 -0.3724 0.9798
5.0048 1.0238 -0.3746 0.9797
9.5045 -3.0061 -0.9570 0.9607
9.5322 -2.6384 -0.9496 0.9610
4.7951 -0.6018 -0.4640 0.9808
4.7985 -0.4261 -0.4625 0.9808
4.8008 -0.2512 -0.4615 0.9809
4.8019 -0.0767 -0.4611 0.9809
4.7982 0.4471 -0.4626 0.9808
4.7946 0.6229 -0.4642 0.9808
4.7838 0.9786 -0.4688 0.9806
8.8934 -3.1721 -1.1216 0.9627
4.5734 -1.0889 -0.5584 0.9812
4.5815 -0.9165 -0.5550 0.9814
4.5934 -0.5765 -0.5499 0.9815
4.5999 -0.2407 -0.5472 0.9816
4.5997 0.2606 -0.5473 0.9816
4.5874 0.7662 -0.5525 0.9814
4.5806 0.9370 -0.5554 0.9813
8.3781 -2.9884 -1.2603 0.9647
4.5455 -0.7389 -0.6525 0.9816
4.5438 -0.4035 -0.6463 0.9817
4.5433 -0.2377 -0.6446 0.9818
4.5468 0.9301 -0.6576 0.9814
7.9166 -2.8237 -1.3846 0.9665
7.9546 -2.5159 -1.3744 0.9667
7.9880 -2.2110 -1.3654 0.9670
4.5768 -0.9156 -0.7689 0.9813
4.5742 -0.5741 -0.7595 0.9815
4.5734 -0.4061 -0.7564 0.9816
4.5729 -0.2393 -0.7544 0.9816
4.5726 -0.0731 -0.7534 0.9816
4.5729 0.2592 -0.7545 0.9816
7.5392 -2.3845 -1.4863 0.9683
7.5734 -2.0963 -1.4770 0.9685
4.6076 -0.9218 -0.8832 0.9811
4.6046 -0.5779 -0.8723 0.9813
4.6027 -0.0736 -0.8652 0.9814
4.6031 0.2608 -0.8666 0.9814
4.6061 0.7693 -0.8778 0.9812
4.6078 0.9426 -0.8840 0.9810
7.1225 -2.5405 -1.5985 0.9696
7.2270 -1.7207 -1.5703 0.9701
4.6390 -0.9281 -1.0000 0.9808
4.6372 -0.7538 -0.9931 0.9810
4.6357 -0.5818 -0.9876 0.9811
4.6339 0.2626 -0.9811 0.9812
4.6374 0.7745 -0.9938 0.9810
4.6393 0.9490 -1.0010 0.9808
6.8177 -2.1563 -1.6806 0.9710
6.8528 -1.8968 -1.6711 0.9712
4.6712 -0.9345 -1.1196 0.9806
4.6675 -0.5858 -1.1056 0.9809
4.6662 -0.4144 -1.1010 0.9809
4.6650 0.0948 -1.0966 0.9810
4.6663 0.4348 -1.1014 0.9809
4.6676 0.6064 -1.1062 0.9808
6.5018 -2.0564 -1.7656 0.9722
4.7019 -0.7643 -1.2334 0.9805
4.6986 -0.4172 -1.2213 0.9807
4.6973 -0.0751 -1.2164 0.9808
4.6973 0.0954 -1.2165 0.9808
4.6988 0.4378 -1.2219 0.9807
4.7002 0.6106 -1.2272 0.9806
4.7021 0.7853 -1.2343 0.9805
6.1709 -2.2011 -1.8547 0.9731
6.2106 -1.9643 -1.8440 0.9733
6.2761 -1.4943 -1.8264 0.9735
4.7319 -0.4202 -1.3448 0.9804
4.7309 -0.2475 -1.3411 0.9805
4.7320 0.4409 -1.3454 0.9804
4.7358 0.7909 -1.3592 0.9802
5.9412 -1.8791 -1.9166 0.9743
6.0063 -1.4300 -1.8991 0.9745
4.7660 -0.4232 -1.4717 0.9802
4.7651 0.2700 -1.4680 0.9802
4.7680 0.6195 -1.4789 0.9801
4.7703 0.7967 -1.4876 0.9800
5.6516 -2.0159 -1.9946 0.9750
5.6908 -1.7999 -1.9840 0.9752
5.7254 -1.5847 -1.9747 0.9753
5.7554 -1.3703 -1.9666 0.9754
5.8022 -0.9432 -1.9540 0.9755
5.8439 -0.0934 -1.9428 0.9757
5.8391 0.3309 -1.9441 0.9756
5.8304 0.5432 -1.9464 0.9756
5.7782 1.1820 -1.9605 0.9754
5.4186 -1.9327 -2.0573 0.9759
5.5677 -0.9051 -2.0172 0.9763
5.5844 -0.7009 -2.0127 0.9764
5.6050 -0.2933 -2.0071 0.9764
5.6089 -0.0896 -2.0061 0.9765
5.6042 0.3176 -2.0073 0.9764
5.5654 0.9295 -2.0178 0.9763
5.2007 -1.8550 -2.1160 0.9766
5.3021 -1.2624 -2.0887 0.9769
5.3272 -1.0657 -2.0819 0.9770
5.3645 -0.6733 -2.0719 0.9771
5.3768 -0.4775 -2.0686 0.9771
5.3849 -0.2817 -2.0664 0.9772
5.3885 0.1095 -2.0654 0.9772
5.3755 0.5008 -2.0689 0.9771
5.3627 0.6967 -2.0724 0.9771
5.0340 -1.5922 -2.1609 0.9774
5.0673 -1.4026 -2.1519 0.9775
5.0963 -1.2134 -2.1441 0.9776
5.1211 -1.0245 -2.1374 0.9777
5.1578 -0.6474 -2.1275 0.9778
5.1700 -0.4591 -2.1243 0.9778
5.1816 0.1053 -2.1211 0.9778
4.8040 -1.7135 -2.2228 0.9780
4.8411 -1.5311 -2.2128 0.9781
4.8739 -1.3491 -2.2040 0.9782
4.9268 -0.9856 -2.1897 0.9783
4.9470 -0.8042 -2.1843 0.9784
4.9751 -0.4418 -2.1768 0.9784
4.9822 0.2823 -2.1748 0.9785
4.9242 1.0073 -2.1905 0.9783
4.6225 -1.6488 -2.2717 0.9786
4.6590 -1.4736 -2.2619 0.9787
4.7434 -0.9489 -2.2391 0.9789
4.7633 -0.7743 -2.2338 0.9790
4.7909 -0.4254 -2.2264 0.9790
4.8022 0.0975 -2.2233 0.9791
4.7979 0.2719 -2.2245 0.9790
4.7897 0.4462 -2.2267 0.9790
4.7611 0.7952 -2.2344 0.9789
4.4867 -1.4190 -2.3083 0.9793
4.5696 -0.9142 -2.2859 0.9795
4.6164 -0.4099 -2.2733 0.9796
4.6277 -0.0739 -2.2703 0.9796
4.6233 0.2620 -2.2715 0.9796
4.6152 0.4300 -2.2737 0.9796
4.5670 0.9343 -2.2866 0.9794
4.3232 -1.3674 -2.3523 0.9798
4.3544 -1.2053 -2.3439 0.9798
4.4047 -0.8812 -2.3303 0.9800
4.4506 -0.3952 -2.3180 0.9801
4.4582 -0.2333 -2.3160 0.9801
4.4616 0.0906 -2.3150 0.9801
4.4495 0.4146 -2.3183 0.9801
4.4376 0.5765 -2.3215 0.9800
4.4021 0.9005 -2.3310 0.9800
4.2478 -0.8498 -2.3726 0.9804
4.2667 -0.6936 -2.3675 0.9805
4.2817 -0.5374 -2.3635 0.9805
4.2929 -0.3812 -2.3605 0.9805
4.3002 -0.2250 -2.3585 0.9806
4.2996 0.2437 -2.3587 0.9806
4.2917 0.3998 -2.3608 0.9805
4.2646 0.7123 -2.3681 0.9805
4.0758 -0.9704 -2.4189 0.9808
4.1166 -0.6692 -2.4079 0.9809
4.1496 -0.2171 -2.3990 0.9810
4.1531 -0.0664 -2.3981 0.9810
4.1489 0.2351 -2.3992 0.9810
4.1412 0.3858 -2.4013 0.9810
