ply
format ascii 1.0
element vertex 142
property float32 x
property float32 y
property float32 z
property float32 I
end_header
-16.0701 2.2383 -1.5577 0.9369
-15.7510 1.6155 -1.8808 0.9382
-16.2902 3.4851 -2.3604 0.9349
-15.8583 2.2088 -2.2687 0.9374
-15.6587 1.6060 -2.2303 0.9384
-16.2239 3.4709 -2.7332 0.9350
-38.5856 22.9427 -8.4378 0.8330
-16.3421 4.1197 -3.1678 0.9337
-16.1249 3.4498 -3.0994 0.9351
-28.5955 -4.3538 -5.4368 0.8889
-15.9993 3.4229 -3.4585 0.9353
-15.7233 2.7732 -3.3749 0.9368
-15.5567 2.1668 -3.3201 0.9378
-15.3897 1.5784 -3.2701 0.9387
-28.4808 -4.3363 -6.0897 0.8889
-37.8554 22.5086 -10.3508 0.8345
-15.8904 3.3996 -3.8191 0.9354
-15.6278 2.7563 -3.7296 0.9369
-15.4798 2.1561 -3.6732 0.9378
-15.2630 1.5654 -3.6060 0.9389
-37.5943 22.3533 -11.3245 0.8347
-37.6636 20.5879 -11.1136 0.8375
-18.5553 8.4622 -5.2803 0.9192
-37.3338 22.1984 -12.2961 0.8348
-37.4074 20.4478 -12.0686 0.8376
-37.4746 18.7567 -11.8635 0.8401
-18.4382 8.4088 -5.7369 0.9192
-42.4571 17.5362 -13.0042 0.8262
-26.0360 16.7846 -9.5280 0.8784
-32.2333 19.1657 -11.5344 0.8548
-37.1515 20.3079 -13.0228 0.8376
-27.6349 13.8318 -9.5052 0.8787
-37.2872 17.0050 -12.6051 0.8424
-38.6261 15.9538 -12.8541 0.8395
-34.9362 11.5511 -11.3178 0.8573
-18.7986 12.1189 -7.4347 0.9100
-26.3917 15.6924 -10.2064 0.8786
-31.5061 17.2220 -11.9353 0.8595
-35.7070 16.2843 -13.0453 0.8475
-42.4375 14.0313 -14.8575 0.8283
-44.5706 12.9679 -15.4299 0.8223
-18.5915 11.9854 -7.9103 0.9103
-23.1255 13.7502 -9.6213 0.8920
-18.6940 10.2186 -7.6187 0.9135
-18.7753 9.3974 -7.5082 0.9147
-27.4497 12.5186 -10.7889 0.8797
-24.5078 9.0993 -9.3488 0.8949
-34.1098 8.5989 -12.5796 0.8612
-36.1505 6.3760 -13.1272 0.8556
-36.9579 5.1476 -13.3440 0.8534
-38.0121 2.5132 -13.6231 0.8506
-38.2683 -0.2430 -13.6853 0.8500
-37.1183 -4.2840 -13.3619 0.8532
-19.7144 8.9908 -8.3035 0.9114
-24.2083 8.9880 -9.8958 0.8953
-27.5072 5.8849 -10.7798 0.8865
-28.1286 4.9611 -10.9458 0.8848
-29.3121 1.9380 -11.2575 0.8818
-29.4566 0.8791 -11.2933 0.8814
-29.3913 -1.2510 -11.2735 0.8816
-29.1759 -2.3016 -11.2155 0.8822
-28.3807 -4.3211 -11.0013 0.8843
-18.6345 8.4983 -8.3823 0.9153
-20.1027 7.4637 -8.7763 0.9115
-21.4134 6.2302 -9.1274 0.9081
-21.9885 5.5432 -9.2809 0.9066
-22.5042 4.8146 -9.4189 0.9053
-22.9572 4.0490 -9.5408 0.9042
-23.3346 3.2501 -9.6425 0.9032
-23.8410 1.5763 -9.7788 0.9019
-23.9298 -1.0185 -9.8028 0.9017
-23.7772 -1.8757 -9.7617 0.9020
-13.4756 8.6873 -6.9875 0.9324
-14.1271 8.3999 -7.1630 0.9308
-15.4019 7.7089 -7.5063 0.9276
-16.0159 7.3041 -7.6716 0.9261
-17.7024 5.8530 -8.1258 0.9219
-18.6426 4.6997 -8.3789 0.9195
-19.3859 3.4191 -8.5791 0.9177
-19.8958 2.0406 -8.7164 0.9164
-20.1680 -0.1281 -8.7897 0.9158
-20.3412 -0.8658 -8.8731 0.9150
-20.9318 -1.6512 -9.1508 0.9125
-20.4986 -3.1210 -9.0366 0.9135
-11.9336 7.6933 -6.5723 0.9393
-12.4747 7.4174 -6.7180 0.9380
-13.5246 6.7693 -7.0007 0.9355
-14.0261 6.3966 -7.1358 0.9343
-14.9627 5.5554 -7.3880 0.9321
-15.3898 5.0884 -7.5030 0.9310
-16.1415 4.0692 -7.7054 0.9293
-16.4585 3.5211 -7.7908 0.9285
-14.8162 2.6132 -6.9641 0.9358
-16.9576 2.3619 -7.9252 0.9273
-17.1341 1.7573 -7.9727 0.9269
-17.9115 0.5345 -8.2947 0.9241
-18.1626 -0.1154 -8.4073 0.9231
-17.8805 -2.0637 -8.3315 0.9237
-17.6772 -2.6914 -8.2768 0.9242
-10.6852 6.8884 -6.2361 0.9449
-12.0277 6.0200 -6.5976 0.9418
-12.8475 5.3064 -6.8184 0.9399
-13.5786 4.4896 -7.0153 0.9383
-13.9033 4.0452 -7.1027 0.9375
-14.1968 3.5789 -7.1817 0.9369
-14.4563 3.0928 -7.2516 0.9363
-14.6792 2.5890 -7.3117 0.9357
-15.8184 1.0458 -7.7763 0.9318
-15.8943 -0.1010 -7.7967 0.9316
-15.8632 -0.6752 -7.7883 0.9317
-15.4990 -2.3598 -7.6902 0.9325
-10.0479 5.9744 -6.0645 0.9487
-10.4327 5.7028 -6.1681 0.9478
-10.8050 5.4081 -6.2684 0.9470
-11.1624 5.0906 -6.3646 0.9462
-11.5023 4.7508 -6.4561 0.9455
-11.8225 4.3895 -6.5424 0.9448
-12.1203 4.0074 -6.6226 0.9441
-13.2643 2.8378 -7.0370 0.9407
-13.6414 2.4060 -7.1861 0.9395
-13.9427 1.4300 -7.2711 0.9388
-14.0818 0.4202 -7.3086 0.9385
-14.0942 -0.0895 -7.3119 0.9385
-13.7650 -2.0958 -7.2233 0.9392
-9.1289 5.4279 -5.8170 0.9527
-9.4637 5.1731 -5.9072 0.9520
-9.7867 4.8984 -5.9941 0.9513
-10.3889 4.2910 -6.1563 0.9500
-10.6643 3.9594 -6.2305 0.9494
-11.8940 2.9984 -6.7182 0.9456
-12.5765 0.8315 -6.9032 0.9441
-12.6081 -0.5367 -6.9117 0.9441
-12.3505 -1.8804 -6.8424 0.9446
-8.3464 4.9627 -5.6063 0.9561
-8.6411 4.7234 -5.6856 0.9555
-9.0226 4.5160 -5.8253 0.9545
-9.8779 4.0799 -6.1703 0.9518
-10.3793 3.4317 -6.3115 0.9508
-10.5919 3.0817 -6.3688 0.9503
-11.0941 1.9567 -6.5040 0.9493
-11.2122 1.5617 -6.5358 0.9491
-11.4055 0.3404 -6.5879 0.9487
