ply
format ascii 1.0
element vertex 342
property float32 x
property float32 y
property float32 z
property float32 I
end_header
6.0824 -17.2784 1.9670 0.9290
-4.4236 -15.5937 1.3721 0.9370
4.7119 -17.2846 1.5166 0.9306
5.4005 -17.3167 1.5355 0.9298
6.0989 -17.3253 1.5549 0.9289
-4.9853 -13.7100 0.9046 0.9432
-4.3944 -15.4906 0.9985 0.9375
3.3934 -17.2906 1.0927 0.9318
4.7179 -17.3069 1.1124 0.9306
2.0993 -17.1993 0.6832 0.9330
3.3932 -17.2893 0.6947 0.9319
4.0494 -17.2973 0.7005 0.9314
5.3777 -17.2435 0.7122 0.9302
-4.6122 -14.2712 0.2533 0.9418
0.2233 -17.2491 0.2914 0.9333
1.4760 -17.2644 0.2927 0.9330
2.7466 -17.2800 0.2956 0.9324
4.0491 -17.2960 0.3001 0.9314
6.0022 -17.0506 0.3053 0.9302
-4.8556 -13.3534 -0.0800 0.9447
-4.5765 -14.1605 -0.0838 0.9422
-3.8949 -15.8989 -0.0922 0.9366
0.8482 -17.2554 -0.0973 0.9332
1.4759 -17.2631 -0.0975 0.9330
2.1080 -17.2709 -0.0980 0.9328
3.9884 -17.0366 -0.0985 0.9324
5.3159 -17.0454 -0.1005 0.9311
6.0020 -17.0499 -0.1018 0.9302
-4.5306 -14.0186 -0.4148 0.9428
0.2233 -17.2465 -0.4857 0.9333
0.8481 -17.2542 -0.4864 0.9332
1.4758 -17.2618 -0.4878 0.9330
2.0778 -17.0233 -0.4829 0.9337
3.3426 -17.0317 -0.4887 0.9329
3.9883 -17.0359 -0.4927 0.9324
5.3157 -17.0446 -0.5027 0.9310
-4.4817 -13.8675 -0.7391 0.9433
-0.4004 -17.2376 -0.8744 0.9333
2.7063 -17.0268 -0.8743 0.9333
3.3425 -17.0309 -0.8802 0.9328
3.9881 -17.0352 -0.8873 0.9323
5.2899 -16.9620 -0.9011 0.9313
6.0015 -17.0484 -0.9166 0.9302
-0.3950 -17.0057 -1.2472 0.9341
0.8363 -17.0138 -1.2490 0.9340
1.4549 -17.0179 -1.2523 0.9338
2.7062 -17.0261 -1.2641 0.9332
3.3423 -17.0303 -1.2725 0.9328
3.9879 -17.0345 -1.2828 0.9322
5.2897 -16.9613 -1.3027 0.9312
6.0012 -17.0477 -1.3252 0.9301
-4.5583 -47.5523 -4.5862 0.8253
-2.4916 -41.8992 -4.0296 0.8448
-0.3931 -16.9233 -1.6252 0.9342
0.8363 -17.0131 -1.6353 0.9338
1.4549 -17.0172 -1.6397 0.9337
2.0776 -17.0213 -1.6463 0.9334
2.7061 -17.0254 -1.6550 0.9331
3.3422 -17.0296 -1.6661 0.9326
3.9878 -17.0338 -1.6795 0.9321
-7.6075 -44.8812 -5.4073 0.8325
-5.2892 -39.9167 -4.7830 0.8503
-3.4428 -35.9153 -4.2858 0.8647
-0.3931 -16.9226 -2.0107 0.9341
0.8362 -17.0124 -2.0233 0.9337
1.4548 -17.0165 -2.0287 0.9335
2.7060 -17.0247 -2.0477 0.9329
3.3421 -17.0289 -2.0614 0.9325
3.9876 -17.0331 -2.0780 0.9320
4.6445 -17.0374 -2.0977 0.9313
5.0259 -16.1156 -2.0052 0.9343
-25.3476 -36.8958 -6.3426 0.8346
-7.8137 -37.7550 -5.4628 0.8558
-4.1497 -31.3176 -4.4761 0.8802
-2.7630 -28.8236 -4.1027 0.8896
-0.3931 -16.9219 -2.3983 0.9339
1.4547 -17.0158 -2.4198 0.9333
2.0774 -17.0199 -2.4294 0.9331
3.3419 -17.0281 -2.4587 0.9323
4.1567 -15.2480 -2.2393 0.9381
4.8257 -13.7083 -2.0592 0.9430
-7.9391 -32.4072 -5.4966 0.8735
-3.4103 -25.7376 -4.2770 0.9001
-2.3050 -24.0454 -3.9794 0.9067
1.4547 -17.0151 -2.8133 0.9331
2.0618 -16.8921 -2.8034 0.9333
2.5469 -16.0235 -2.6728 0.9363
3.7500 -13.7560 -2.3488 0.9438
-14.5222 -35.8448 -7.2694 0.8544
-11.9639 -32.9020 -6.5804 0.8672
-9.8231 -30.3945 -6.0039 0.8781
-8.0076 -28.2277 -5.5151 0.8874
-3.5900 -14.6541 -2.8359 0.9404
-3.9264 -23.1639 -4.4160 0.9088
-2.8914 -21.8207 -4.1373 0.9143
-1.9751 -20.6043 -3.8905 0.9192
-1.1593 -19.4955 -3.6709 0.9236
-0.3931 -16.9205 -3.1812 0.9334
0.2201 -17.0063 -3.1968 0.9331
1.3566 -15.8676 -2.9934 0.9372
1.8448 -15.1139 -2.8619 0.9399
2.2900 -14.4073 -2.7420 0.9424
2.6971 -13.7427 -2.6324 0.9446
3.0704 -13.1154 -2.5318 0.9467
3.4135 -12.5216 -2.4395 0.9485
3.7293 -11.9580 -2.3544 0.9503
-22.5234 -38.4755 -9.4240 0.8334
-16.0330 -32.5838 -7.6762 0.8620
-11.4377 -28.2316 -6.4387 0.8829
-9.6164 -26.4462 -5.9483 0.8913
-8.0337 -24.8580 -5.5221 0.8987
-6.6476 -23.4334 -5.1488 0.9052
-3.5933 -14.6677 -3.1921 0.9401
-2.5066 -18.9173 -4.0337 0.9249
-1.0204 -17.1589 -3.6334 0.9321
-0.3803 -16.3693 -3.4611 0.9352
0.2024 -15.6302 -3.3042 0.9381
1.2210 -14.2817 -3.0299 0.9431
2.0786 -13.0771 -2.7989 0.9473
2.4572 -12.5201 -2.6970 0.9492
2.8068 -11.9893 -2.6028 0.9509
3.2368 -11.8734 -2.6014 0.9509
3.5884 -11.5062 -2.5477 0.9519
-23.0426 -33.5407 -9.5638 0.8460
-19.8594 -31.2729 -8.7066 0.8588
-14.8027 -27.5237 -7.3449 0.8795
-10.9879 -24.5325 -6.3176 0.8954
-9.4182 -23.2469 -5.8949 0.9021
-4.6750 -19.0831 -4.6176 0.9224
-3.7722 -18.2268 -4.3745 0.9264
-2.9539 -17.4268 -4.1541 0.9299
-2.2098 -16.6770 -3.9537 0.9332
-1.5310 -15.9719 -3.7710 0.9362
0.1823 -14.0808 -3.3096 0.9438
1.1091 -12.9727 -3.0600 0.9479
1.5204 -12.4563 -2.9492 0.9497
1.9237 -12.1030 -2.8802 0.9509
3.0239 -11.0928 -2.7022 0.9539
3.5990 -10.2236 -2.5473 0.9564
-15.7170 -24.7499 -7.5911 0.8859
-13.8093 -23.5898 -7.0774 0.8932
-12.1102 -22.5173 -6.6198 0.8997
-9.2239 -20.5941 -5.8426 0.9110
-7.9921 -19.7268 -5.5109 0.9158
-6.8772 -18.9132 -5.2106 0.9202
-5.8651 -18.1478 -4.9381 0.9242
-4.9433 -17.4257 -4.6899 0.9279
-4.1017 -16.7428 -4.4632 0.9313
-3.3311 -16.0954 -4.2557 0.9343
-2.6239 -15.4802 -4.0653 0.9372
-1.9736 -14.8944 -3.8901 0.9398
-1.3742 -14.3355 -3.7287 0.9422
-0.8207 -13.8011 -3.5797 0.9445
-0.3087 -13.2895 -3.4418 0.9466
0.6083 -12.3753 -3.2081 0.9501
1.0487 -12.2666 -3.1876 0.9504
1.4597 -11.9588 -3.1193 0.9514
1.8327 -11.5306 -3.0230 0.9529
2.1792 -11.1033 -2.9297 0.9543
2.8048 -10.2889 -2.7612 0.9569
3.0875 -9.9000 -2.6851 0.9581
-14.5617 -21.1959 -7.2800 0.8986
-11.5390 -19.7116 -6.4660 0.9094
-7.9351 -17.7165 -5.4955 0.9225
-6.9304 -17.1061 -5.2250 0.9261
-6.0071 -16.5202 -4.9763 0.9295
-4.3732 -15.4159 -4.5363 0.9356
-3.6489 -14.8948 -4.3413 0.9382
-1.7810 -13.4409 -3.8383 0.9452
-0.7554 -12.7031 -3.6025 0.9485
-0.2921 -12.5747 -3.5608 0.9491
0.5826 -11.8532 -3.3596 0.9519
0.9788 -11.4489 -3.2529 0.9534
1.3495 -11.0560 -3.1531 0.9548
2.0219 -10.3019 -2.9720 0.9573
2.3269 -9.9395 -2.8899 0.9585
2.6132 -9.5861 -2.8128 0.9595
3.1346 -8.9044 -2.6724 0.9615
-12.4287 -18.0911 -6.7511 0.9122
-8.8368 -16.4310 -5.7383 0.9249
-7.8588 -15.9715 -5.4750 0.9282
-3.3010 -13.4744 -4.2670 0.9436
-2.2225 -13.1120 -4.0905 0.9459
-1.1900 -12.4140 -3.8358 0.9491
-0.7159 -12.0383 -3.7093 0.9508
0.1463 -11.3038 -3.4771 0.9538
0.5382 -10.9485 -3.3716 0.9552
0.9063 -10.6007 -3.2724 0.9565
1.5778 -9.9268 -3.0916 0.9588
1.8841 -9.6001 -3.0091 0.9599
2.7000 -8.6577 -2.7894 0.9628
2.9412 -8.3552 -2.7244 0.9636
-10.0248 -15.7862 -6.2161 0.9242
-9.0473 -15.4550 -5.9528 0.9273
-8.1273 -15.1116 -5.7036 0.9302
-7.2656 -14.7658 -5.4702 0.9330
-6.4595 -14.4220 -5.2528 0.9356
-5.7042 -14.0795 -5.0496 0.9380
-4.9961 -13.7398 -4.8598 0.9402
-2.5651 -12.3944 -4.2073 0.9480
-2.0448 -12.0634 -4.0671 0.9497
-1.5551 -11.7362 -3.9353 0.9513
-1.0940 -11.4129 -3.8111 0.9528
-0.6597 -11.0938 -3.6942 0.9542
0.4995 -10.1620 -3.3820 0.9580
1.1672 -9.5624 -3.2022 0.9602
2.5376 -8.1367 -2.8332 0.9647
2.7681 -7.8634 -2.7711 0.9655
-9.7076 -14.1303 -6.1307 0.9298
-8.0182 -13.6971 -5.6757 0.9348
-5.1480 -12.7068 -4.9028 0.9434
-4.5248 -12.4436 -4.7350 0.9453
-3.9353 -12.1767 -4.5762 0.9471
-2.3518 -11.3636 -4.1498 0.9519
-1.8799 -11.0909 -4.0227 0.9533
-1.4335 -10.8183 -3.9025 0.9547
-0.6110 -10.2754 -3.6810 0.9572
-0.2324 -10.0058 -3.5791 0.9584
0.4656 -9.4714 -3.3911 0.9605
1.3804 -8.6849 -3.1448 0.9633
1.6539 -8.4272 -3.0711 0.9642
1.9131 -8.1718 -3.0013 0.9650
2.1587 -7.9189 -2.9352 0.9657
2.3915 -7.6683 -2.8725 0.9665
-6.5148 -12.1135 -5.2709 0.9428
-5.8736 -11.9368 -5.0982 0.9446
-5.2625 -11.7496 -4.9337 0.9463
-4.6807 -11.5533 -4.7770 0.9480
-4.1268 -11.3492 -4.6278 0.9496
-3.5998 -11.1386 -4.4859 0.9511
-3.0985 -10.9226 -4.3509 0.9525
-2.6218 -10.7021 -4.2225 0.9539
-1.7376 -10.2510 -3.9844 0.9564
-0.9385 -9.7909 -3.7692 0.9587
-0.5684 -9.5588 -3.6696 0.9598
-0.2166 -9.3260 -3.5748 0.9608
0.4355 -8.8595 -3.3992 0.9627
0.7375 -8.6265 -3.3179 0.9636
1.0245 -8.3940 -3.2406 0.9644
1.5566 -7.9311 -3.0973 0.9660
2.0370 -7.4722 -2.9680 0.9674
2.2593 -7.2445 -2.9081 0.9680
2.4705 -7.0180 -2.8512 0.9686
-6.5020 -11.1070 -5.2674 0.9459
-5.9123 -10.9931 -5.1086 0.9475
-3.7879 -10.4170 -4.5365 0.9532
-3.3125 -10.2496 -4.4085 0.9545
-2.8581 -10.0750 -4.2862 0.9557
-1.6133 -9.5178 -3.9509 0.9591
-1.2354 -9.3234 -3.8492 0.9602
-0.8748 -9.1258 -3.7521 0.9612
-0.5307 -8.9255 -3.6594 0.9621
-0.2026 -8.7230 -3.5711 0.9630
0.1103 -8.5187 -3.4868 0.9638
2.3415 -6.6514 -2.8860 0.9700
-6.4679 -10.1851 -5.2582 0.9487
-5.9263 -10.1235 -5.1124 0.9501
-5.4032 -10.0466 -4.9715 0.9514
-4.8987 -9.9557 -4.8357 0.9527
-4.4128 -9.8523 -4.7048 0.9540
-3.9451 -9.7376 -4.5789 0.9552
-3.0634 -9.4789 -4.3415 0.9575
-1.1535 -8.7054 -3.8271 0.9624
-0.8182 -8.5352 -3.7368 0.9633
0.3845 -7.8217 -3.4130 0.9664
0.9095 -7.4515 -3.2716 0.9678
1.3887 -7.0757 -3.1425 0.9690
1.6122 -6.8864 -3.0824 0.9696
2.2231 -6.3152 -2.9178 0.9712
-6.4150 -9.3377 -5.2440 0.9513
-5.9182 -9.3196 -5.1102 0.9525
-5.4355 -9.2851 -4.9802 0.9537
-4.9671 -9.2356 -4.8541 0.9548
-4.5133 -9.1723 -4.7319 0.9559
-3.6499 -9.0090 -4.4994 0.9581
-3.2403 -8.9112 -4.3891 0.9591
-2.0981 -8.5643 -4.0815 0.9619
-1.7454 -8.4336 -3.9865 0.9628
-1.4063 -8.2967 -3.8952 0.9636
-0.7675 -8.0067 -3.7232 0.9652
-0.4671 -7.8548 -3.6423 0.9659
-0.1788 -7.6989 -3.5647 0.9666
0.3626 -7.3771 -3.4188 0.9680
1.3157 -6.7036 -3.1622 0.9703
1.5289 -6.5309 -3.1048 0.9709
1.9279 -6.1817 -2.9973 0.9719
-5.8906 -8.5742 -5.1028 0.9547
-4.5888 -8.5324 -4.7522 0.9578
-3.7782 -8.4356 -4.5339 0.9597
-3.3908 -8.3696 -4.4296 0.9606
-2.3012 -8.1122 -4.1362 0.9631
-1.3191 -7.7820 -3.8717 0.9654
-1.0149 -7.6591 -3.7898 0.9662
-0.1686 -7.2595 -3.5619 0.9682
0.5834 -6.8237 -3.3594 0.9699
1.4524 -6.2038 -3.1254 0.9720
1.6476 -6.0438 -3.0728 0.9725
1.8345 -5.8823 -3.0225 0.9729
2.0134 -5.7195 -2.9743 0.9733
-5.4362 -7.9128 -4.9804 0.9577
-5.0347 -7.9284 -4.8723 0.9586
-4.6417 -7.9291 -4.7665 0.9594
-4.2574 -7.9161 -4.6630 0.9603
-2.8159 -7.7440 -4.2748 0.9635
-1.8402 -7.5115 -4.0120 0.9658
-1.5352 -7.4182 -3.9299 0.9664
-1.2404 -7.3179 -3.8505 0.9671
-0.9555 -7.2114 -3.7738 0.9678
-0.1593 -6.8593 -3.5594 0.9696
0.3245 -6.6020 -3.4291 0.9707
0.5530 -6.4678 -3.3676 0.9712
0.9839 -6.1900 -3.2515 0.9722
1.3816 -5.9017 -3.1444 0.9731
1.9199 -5.4538 -2.9995 0.9743
-4.6737 -7.3598 -4.7751 0.9610
-4.3155 -7.3720 -4.6786 0.9618
-3.9643 -7.3712 -4.5841 0.9625
-3.6205 -7.3581 -4.4915 0.9633
-2.9567 -7.2980 -4.3127 0.9647
-2.6372 -7.2525 -4.2267 0.9654
0.0826 -6.3793 -3.4943 0.9713
0.3078 -6.2616 -3.4336 0.9718
0.7342 -6.0149 -3.3188 0.9727
1.1295 -5.7553 -3.2123 0.9736
1.4953 -5.4851 -3.1138 0.9744
1.8327 -5.2062 -3.0230 0.9751
-4.0256 -6.8768 -4.6006 0.9639
-3.3864 -6.8823 -4.4284 0.9652
-2.7726 -6.8437 -4.2631 0.9665
-1.9047 -6.7142 -4.0294 0.9683
-1.3632 -6.5870 -3.8836 0.9694
-1.1039 -6.5127 -3.8138 0.9700
-0.8523 -6.4321 -3.7460 0.9705
-0.6083 -6.3454 -3.6803 0.9710
-0.3718 -6.2532 -3.6166 0.9715
-0.1430 -6.1558 -3.5550 0.9720
0.0784 -6.0537 -3.4954 0.9724
1.0763 -5.4841 -3.2267 0.9745
1.2549 -5.3605 -3.1786 0.9749
1.4269 -5.2342 -3.1323 0.9753
1.5923 -5.1056 -3.0877 0.9756
1.7512 -4.9747 -3.0449 0.9759
