ply
format ascii 1.0
element vertex 194
property float32 x
property float32 y
property float32 z
property float32 I
end_header
-32.8168 34.0656 -3.4682 0.8272
-29.9595 28.9681 -3.0556 0.8461
-16.8157 4.0470 -1.2682 0.9330
-16.5964 3.3761 -1.2418 0.9343
-16.3361 2.7234 -1.2143 0.9357
-16.1223 2.1029 -1.1921 0.9369
-15.8951 1.5019 -1.1707 0.9380
-29.8598 28.8717 -3.9876 0.8463
-32.0868 28.8936 -4.1454 0.8407
-34.5004 28.9174 -4.3218 0.8345
-16.7115 4.0220 -1.6502 0.9333
-29.8624 28.8742 -4.9342 0.8459
-32.0896 28.8962 -5.1295 0.8403
-37.1357 28.9461 -5.5930 0.8272
-16.5999 3.9951 -2.0281 0.9335
-29.8650 28.8767 -5.8861 0.8455
-32.0926 28.8988 -6.1191 0.8399
-38.7770 28.0715 -6.7829 0.8242
-38.8332 26.0634 -6.6266 0.8278
-16.4728 3.9645 -2.4007 0.9338
-16.2607 3.3078 -2.3512 0.9352
-15.7975 2.0605 -2.2573 0.9377
-15.6065 1.4746 -2.2211 0.9386
-29.8676 28.8792 -6.8443 0.8450
-34.5101 28.9255 -7.4181 0.8331
-37.1430 28.9518 -7.7582 0.8262
-16.3621 3.9379 -2.7724 0.9341
-15.6979 2.0475 -2.6080 0.9378
-15.5072 1.4652 -2.5660 0.9388
-38.2182 27.6671 -8.8683 0.8253
-38.3489 23.8093 -8.4843 0.8322
-40.6424 23.2769 -8.8034 0.8264
-16.2874 3.9199 -3.1488 0.9341
-15.4239 1.4573 -2.9120 0.9389
-38.0154 25.5146 -9.6778 0.8293
-38.0832 23.6443 -9.4754 0.8325
-41.1811 21.6823 -9.8377 0.8267
-18.6356 8.9822 -4.3729 0.9189
-16.1805 3.8942 -3.5179 0.9342
-15.9279 3.2401 -3.4358 0.9357
-15.3254 1.4480 -3.2539 0.9390
-37.1542 28.9605 -11.0714 0.8240
-37.7458 25.3336 -10.6840 0.8296
-37.8186 23.4801 -10.4620 0.8328
-38.1047 20.0625 -10.1209 0.8378
-27.7871 7.7404 -6.7793 0.8882
-15.8242 3.2190 -3.7952 0.9358
-25.8608 26.8448 -9.6511 0.8573
-34.5234 28.9367 -11.6634 0.8302
-37.1580 28.9635 -12.1983 0.8231
-37.3920 27.0689 -11.9521 0.8264
-37.4771 25.1532 -11.6864 0.8299
-37.5550 23.3164 -11.4453 0.8331
-37.6916 19.8450 -11.0291 0.8386
-38.9845 18.7902 -11.2051 0.8363
-43.6080 19.1426 -12.3309 0.8214
-24.9110 25.8590 -10.1648 0.8613
-31.0892 27.9954 -11.8436 0.8404
-28.0750 21.8835 -10.0771 0.8624
-37.1186 26.8711 -12.9725 0.8265
-37.4372 19.7110 -11.9774 0.8387
-44.1722 17.5483 -13.4555 0.8207
-15.6894 2.6156 -4.5029 0.9360
-21.8467 21.1238 -9.3470 0.8806
-19.4551 17.5190 -8.0525 0.8962
-26.2606 22.0110 -10.5392 0.8664
-25.3464 19.7567 -9.8846 0.8742
-31.4398 22.7600 -11.9382 0.8501
-25.6683 17.2276 -9.5084 0.8786
-37.2500 17.9541 -12.7187 0.8411
-40.0759 15.9209 -13.2636 0.8349
-44.7227 15.9539 -14.6048 0.8198
-16.3609 16.9835 -7.8389 0.9054
-26.2879 17.6435 -10.5239 0.8751
-30.3204 17.3653 -11.6146 0.8630
-37.1221 14.7475 -13.2777 0.8450
-43.1624 13.6913 -15.0520 0.8262
-14.8489 14.3575 -7.3864 0.9160
-17.1842 14.4033 -8.0183 0.9091
-18.4221 14.3594 -8.3528 0.9055
-21.0251 14.1112 -9.0552 0.8980
-18.5752 11.5326 -7.8188 0.9113
-19.5707 11.2087 -8.0652 0.9086
-26.6059 12.8238 -10.5620 0.8821
-33.3086 9.2784 -12.3649 0.8634
-36.3702 6.0633 -13.1858 0.8550
-37.1214 4.8418 -13.3873 0.8530
-38.0735 2.2380 -13.6389 0.8504
-14.6267 12.2597 -7.3138 0.9215
-15.5860 12.1488 -7.5730 0.9188
-16.5671 11.9933 -7.8378 0.9161
-17.5664 11.7899 -8.1074 0.9134
-23.6076 9.3786 -9.7346 0.8969
-26.2623 7.3156 -10.4473 0.8898
-27.6889 5.6326 -10.8282 0.8860
-28.2728 4.7134 -10.9842 0.8845
-28.7461 3.7494 -11.1094 0.8832
-29.4689 0.6844 -11.2961 0.8814
-11.2044 10.8337 -6.3788 0.9349
-11.9459 10.7570 -6.5793 0.9329
-13.4744 10.5029 -6.9922 0.9288
-14.2562 10.3204 -7.2031 0.9268
-15.8367 9.8324 -7.6292 0.9226
-16.6289 9.5238 -7.8430 0.9205
-17.4120 9.1676 -8.0537 0.9185
-17.6335 8.4992 -8.0115 0.9189
-19.6574 7.8093 -8.6569 0.9126
-21.0003 6.6614 -9.0169 0.9092
-22.1478 5.3303 -9.3234 0.9062
-23.0626 3.8448 -9.5692 0.9039
-23.6848 2.2379 -9.7368 0.9023
-23.9742 0.5568 -9.8147 0.9015
-9.3586 9.7148 -5.8789 0.9428
-9.9683 9.6384 -6.0430 0.9413
-11.2192 9.4036 -6.3799 0.9381
-11.8563 9.2416 -6.5515 0.9365
-13.1410 8.8198 -6.8974 0.9333
-13.7825 8.5570 -7.0702 0.9317
-15.0449 7.9213 -7.4101 0.9285
-15.6575 7.5468 -7.5751 0.9270
-16.2516 7.1339 -7.7351 0.9255
-16.8221 6.6829 -7.8887 0.9241
-17.8722 5.6692 -8.1715 0.9214
-19.4659 3.2452 -8.6007 0.9175
-19.7316 2.5736 -8.6722 0.9168
-19.9366 1.8837 -8.7274 0.9163
-20.0783 1.1802 -8.7656 0.9160
-8.4410 8.7622 -5.6318 0.9478
-9.4983 8.5531 -5.9165 0.9452
-10.0352 8.4113 -6.0611 0.9439
-11.6545 7.8221 -6.4971 0.9400
-12.7157 7.2826 -6.7829 0.9375
-13.2318 6.9666 -6.9219 0.9362
-13.7337 6.6195 -7.0570 0.9350
-14.2179 6.2412 -7.1874 0.9338
-15.1179 5.3930 -7.4298 0.9317
-15.9015 4.4295 -7.6408 0.9298
-16.2403 3.9085 -7.7320 0.9290
-16.5391 3.3645 -7.8125 0.9283
-16.7948 2.7999 -7.8814 0.9277
-17.2777 1.0156 -8.0114 0.9266
-18.1003 0.4204 -8.3806 0.9233
-9.0591 7.5931 -5.7982 0.9487
-9.9878 7.2304 -6.0483 0.9465
-10.4478 7.0122 -6.1722 0.9455
-10.9018 6.7685 -6.2944 0.9444
-11.7819 6.2033 -6.5314 0.9424
-12.6070 5.5341 -6.7536 0.9405
-12.9917 5.1612 -6.8572 0.9396
-13.6910 4.3428 -7.0455 0.9380
-13.9998 3.8998 -7.1287 0.9373
-15.7176 1.4851 -7.7442 0.9321
-15.8855 0.3689 -7.7943 0.9317
-7.4251 7.1794 -5.3582 0.9545
-8.6459 6.7392 -5.6869 0.9518
-9.4477 6.3409 -5.9028 0.9500
-10.2227 5.8548 -6.1116 0.9483
-11.2983 4.9596 -6.4012 0.9459
-11.6246 4.6181 -6.4891 0.9452
-11.9309 4.2561 -6.5716 0.9445
-12.2150 3.8746 -6.6481 0.9439
-13.4609 2.7382 -7.1263 0.9400
-13.8508 1.8066 -7.2464 0.9390
-14.0869 0.3271 -7.3100 0.9385
-6.4570 6.7028 -5.0975 0.9584
-6.8187 6.5930 -5.1949 0.9577
-7.1805 6.4659 -5.2923 0.9569
-7.5415 6.3210 -5.3895 0.9561
-7.9001 6.1579 -5.4861 0.9553
-8.2550 5.9759 -5.5817 0.9546
-8.6045 5.7750 -5.6758 0.9538
-8.9472 5.5549 -5.7681 0.9531
-9.2812 5.3156 -5.8580 0.9524
-9.6047 5.0569 -5.9451 0.9517
-9.9160 4.7794 -6.0289 0.9510
-10.2131 4.4832 -6.1090 0.9504
-10.8290 3.8630 -6.2972 0.9489
-11.9588 2.8781 -6.7369 0.9454
-12.1413 2.4698 -6.7860 0.9451
-12.2966 2.0500 -6.8279 0.9447
-12.4235 1.6204 -6.8620 0.9445
-12.5878 0.7399 -6.9063 0.9441
-12.6238 0.2932 -6.9160 0.9440
-6.6162 5.9578 -5.1404 0.9597
-7.2583 5.6576 -5.3133 0.9584
-7.5737 5.4828 -5.3982 0.9577
-7.8834 5.2910 -5.4816 0.9571
-8.1862 5.0825 -5.5631 0.9565
-8.4805 4.8570 -5.6424 0.9559
-10.4530 3.3157 -6.3314 0.9506
-10.8352 2.6077 -6.4343 0.9498
-10.9930 2.2362 -6.4768 0.9495
-11.3782 0.6688 -6.5805 0.9487
-11.4092 0.2650 -6.5889 0.9487
