ply
format ascii 1.0
element vertex 190
property float32 x
property float32 y
property float32 z
property float32 I
end_header
-12.3597 30.4996 2.0407 0.8764
-12.9859 29.0765 1.9747 0.8802
-14.2312 29.0847 2.0079 0.8783
-15.5212 29.0944 1.3003 0.8763
-16.8606 29.1032 1.3262 0.8740
-17.0843 42.1584 0.7684 0.8336
-17.4475 35.6580 0.6706 0.8532
-17.5931 32.9781 0.6314 0.8611
-17.7203 30.5872 0.5971 0.8681
-18.2571 29.1137 0.5805 0.8716
-20.9334 42.7823 -0.2682 0.8265
-20.7544 33.0960 -0.2199 0.8553
-24.2388 33.2344 -1.1583 0.8482
-29.3027 40.1776 -2.5219 0.8194
-28.1713 33.4342 -2.2172 0.8394
-27.7211 30.6542 -2.0960 0.8474
-32.7407 33.7506 -3.4478 0.8281
-10.1858 13.9659 -1.6595 0.9329
-30.0420 28.8735 -4.0003 0.8458
-32.2525 28.8953 -4.1573 0.8403
-34.6467 28.9188 -4.3327 0.8341
-30.0446 28.8760 -4.9500 0.8455
-34.6500 28.9215 -5.3613 0.8338
-37.2587 28.9473 -5.6046 0.8269
-30.0472 28.8785 -5.9049 0.8450
-32.2584 28.9005 -6.1367 0.8395
-34.6532 28.9242 -6.3956 0.8333
-37.2624 28.9502 -6.6859 0.8264
-38.7788 28.0075 -6.7777 0.8243
-38.8342 26.0285 -6.6240 0.8279
-34.6565 28.9270 -7.4367 0.8328
-39.5521 24.5478 -7.6687 0.8280
-9.8840 24.3904 -4.9466 0.8984
-32.2642 28.9057 -8.1422 0.8384
-34.6598 28.9297 -8.4858 0.8321
-38.2204 27.6043 -8.8617 0.8254
-38.2875 25.6621 -8.6635 0.8289
-38.3491 23.8011 -8.4836 0.8322
-11.8723 24.2640 -5.7100 0.8954
-19.2612 36.1049 -8.6500 0.8459
-28.4526 29.3301 -8.6377 0.8461
-37.9439 27.4046 -9.8937 0.8258
-38.1447 21.8626 -9.2935 0.8355
-9.6893 23.9101 -6.0633 0.8994
-11.2983 23.0906 -6.0416 0.8998
-17.3431 29.9361 -8.1311 0.8675
-23.1161 34.1449 -9.6909 0.8441
-26.7779 36.7158 -10.6803 0.8297
-28.2164 29.0866 -9.5241 0.8466
-32.2702 28.9111 -10.1828 0.8369
-37.2773 28.9618 -11.0944 0.8237
-37.6688 27.2059 -10.9206 0.8262
-37.7471 25.2999 -10.6798 0.8297
-8.9854 18.3637 -5.2934 0.9190
-9.2198 17.2825 -5.0717 0.9223
-15.2072 20.8509 -6.6820 0.8989
-26.1664 31.0547 -10.5144 0.8455
-25.8856 26.6840 -9.6257 0.8576
-37.4785 25.1199 -11.6819 0.8299
-37.5553 23.3084 -11.4443 0.8331
-7.0755 17.4601 -5.3333 0.9247
-9.2075 18.8245 -5.9319 0.9166
-9.1931 15.8684 -5.1916 0.9266
-9.3496 13.8104 -4.7213 0.9330
-16.3854 22.4663 -7.8719 0.8908
-11.8847 15.1513 -5.4513 0.9231
-20.3626 24.1666 -8.9462 0.8769
-31.3340 28.0724 -11.9097 0.8395
-37.0243 28.7652 -13.2729 0.8229
-37.1216 26.8106 -12.9631 0.8267
-37.2923 23.1452 -12.4252 0.8332
-6.1896 15.2740 -5.0691 0.9334
-7.9504 16.2489 -5.5640 0.9271
-8.9130 16.7073 -5.8243 0.9238
-9.4389 15.0518 -5.4646 0.9283
-16.6284 19.7349 -7.9375 0.8976
-22.0197 21.1632 -9.3937 0.8800
-28.8635 22.4248 -11.2423 0.8582
-31.5273 22.7702 -11.9618 0.8498
-25.6636 17.2010 -9.5026 0.8787
-32.8980 18.8554 -11.6629 0.8533
-7.7429 14.5140 -5.4681 0.9330
-8.6120 14.8652 -5.7106 0.9301
-9.5423 15.2167 -5.9704 0.9271
-15.1641 16.7686 -7.5151 0.9091
-16.4972 17.0060 -7.8757 0.9050
-17.3756 15.5668 -7.7547 0.9063
-21.3244 15.4013 -8.7438 0.8950
-26.3223 17.6425 -10.5332 0.8750
-4.9190 12.1385 -4.6837 0.9459
-5.5319 12.3863 -4.8511 0.9440
-6.1794 12.6290 -5.0279 0.9420
-6.8635 12.8656 -5.2146 0.9399
-7.5858 13.0942 -5.4116 0.9377
-9.1535 13.5206 -5.8389 0.9330
-11.8359 14.0471 -6.5688 0.9249
-12.8237 14.1805 -6.8371 0.9220
-13.8597 14.2872 -7.1182 0.9189
-17.2549 14.4021 -8.0374 0.9089
-21.0491 14.1080 -9.0617 0.8979
-18.5714 11.5262 -7.8164 0.9113
-19.5706 11.2169 -8.0666 0.9086
-4.4719 11.0351 -4.5629 0.9503
-5.0096 11.2168 -4.7077 0.9487
-6.1641 11.5545 -5.0186 0.9454
-9.5748 12.2065 -5.9451 0.9357
-10.3503 12.2839 -6.1557 0.9335
-13.7586 12.3264 -7.0791 0.9239
-15.6293 12.1428 -7.5847 0.9187
-17.5843 11.7858 -8.1122 0.9133
-18.5831 11.5334 -8.3815 0.9106
-19.4316 11.1372 -8.5829 0.9085
-4.0937 10.1020 -4.4611 0.9540
-4.5737 10.2408 -4.5903 0.9527
-6.1384 10.5956 -5.0117 0.9485
-6.7029 10.6889 -5.1637 0.9469
-7.8977 10.8288 -5.4855 0.9437
-8.5279 10.8719 -5.6552 0.9420
-9.1796 10.8946 -5.8307 0.9403
-9.8551 10.8978 -6.0135 0.9385
-11.9994 10.7503 -6.5937 0.9327
-12.7477 10.6402 -6.7959 0.9307
-16.6219 9.5268 -7.8411 0.9205
-3.7691 9.3008 -4.3736 0.9572
-4.2013 9.4070 -4.4900 0.9560
-4.6499 9.5032 -4.6108 0.9549
-6.0952 9.7197 -5.0001 0.9512
-6.6102 9.7639 -5.1387 0.9499
-7.6884 9.8016 -5.4291 0.9471
-8.2508 9.7921 -5.5805 0.9457
-9.4179 9.7084 -5.8948 0.9427
-10.0205 9.6307 -6.0571 0.9412
-11.2559 9.3950 -6.3898 0.9380
-14.4127 8.2606 -7.2399 0.9301
-3.4871 8.6049 -4.2977 0.9599
-4.2846 8.7565 -4.5125 0.9579
-4.7031 8.8160 -4.6252 0.9569
-5.5794 8.8971 -4.8611 0.9548
-6.9870 8.9073 -5.2402 0.9513
-7.9811 8.8255 -5.5079 0.9489
-8.4922 8.7541 -5.6455 0.9477
-10.0665 8.4022 -6.0695 0.9438
-11.1326 8.0403 -6.3566 0.9413
-11.6641 7.8178 -6.4997 0.9400
-12.1912 7.5664 -6.6417 0.9387
-3.5976 8.0553 -4.3275 0.9615
-3.9664 8.1062 -4.4268 0.9606
-4.3458 8.1462 -4.5290 0.9597
-4.7356 8.1742 -4.6339 0.9588
-5.1355 8.1894 -4.7416 0.9578
-6.3915 8.1483 -5.0799 0.9549
-6.8269 8.1023 -5.1971 0.9539
-7.7176 7.9557 -5.4370 0.9518
-8.1708 7.8530 -5.5590 0.9508
-9.5449 7.4157 -5.9290 0.9476
-10.4559 7.0081 -6.1744 0.9455
-10.9038 6.7674 -6.2950 0.9444
-11.3434 6.5015 -6.4134 0.9434
-3.0204 7.4533 -4.1720 0.9644
-3.3490 7.4987 -4.2605 0.9637
-3.6865 7.5342 -4.3514 0.9629
-4.7493 7.5735 -4.6376 0.9605
-5.1192 7.5616 -4.7372 0.9597
-5.4961 7.5358 -4.8387 0.9588
-6.6619 7.3667 -5.1527 0.9562
-7.0594 7.2771 -5.2597 0.9553
-7.4596 7.1695 -5.3675 0.9544
-7.8614 7.0430 -5.4757 0.9536
-8.6639 6.7312 -5.6918 0.9518
-9.8413 6.1079 -6.0088 0.9491
-10.2194 5.8572 -6.1107 0.9483
-2.8247 6.9705 -4.1193 0.9663
-3.4382 7.0267 -4.2845 0.9650
-4.4098 7.0321 -4.5462 0.9629
-4.7460 7.0103 -4.6367 0.9621
-5.0874 6.9755 -4.7287 0.9614
-5.7837 6.8642 -4.9162 0.9599
-6.1369 6.7863 -5.0113 0.9591
-6.4925 6.6927 -5.1070 0.9584
-6.8493 6.5829 -5.2031 0.9576
-7.5623 6.3121 -5.3951 0.9561
-7.9160 6.1501 -5.4904 0.9553
-8.6107 5.7713 -5.6775 0.9538
-8.9487 5.5539 -5.7685 0.9531
-9.2782 5.3178 -5.8572 0.9524
-2.9295 6.5593 -4.1476 0.9674
-3.5084 6.5765 -4.3034 0.9662
-4.7272 6.4815 -4.6317 0.9636
-6.3194 6.0736 -5.0604 0.9603
-6.6393 5.9482 -5.1466 0.9597
