ply
format ascii 1.0
element vertex 381
property float32 x
property float32 y
property float32 z
property float32 I
end_header
21.6251 -41.4097 8.2373 0.8272
19.2140 -33.8078 6.8567 0.8539
9.9639 -11.9623 2.7451 0.9387
22.7405 -22.0363 5.5836 0.8793
39.0660 -20.6047 7.7878 0.8358
19.0851 -43.8885 7.3317 0.8239
19.8574 -41.5603 7.0562 0.8299
10.7065 -17.3712 3.1260 0.9207
11.5958 -17.3981 3.2030 0.9189
12.5192 -17.4097 3.2850 0.9169
9.9815 -11.9835 2.3892 0.9388
15.5717 -17.3985 3.5770 0.9098
22.8871 -22.1783 4.8823 0.8790
37.8699 -21.7278 6.6885 0.8380
35.4576 -17.1199 6.0319 0.8527
8.2656 -17.2994 2.4967 0.9256
9.0684 -17.3650 2.5511 0.9240
14.2512 -17.1095 2.8997 0.9141
24.5542 -22.1574 4.3069 0.8751
32.4331 -23.5241 5.2174 0.8508
30.3315 -18.8659 4.6515 0.8658
29.5111 -16.9319 4.4306 0.8718
28.2028 -13.6171 4.0783 0.8813
6.8167 -17.3355 2.0003 0.9278
7.5423 -17.3446 2.0310 0.9267
9.8466 -17.3256 2.1399 0.9230
11.5563 -17.3388 2.2375 0.9196
13.2445 -17.1019 2.3228 0.9167
14.2504 -17.1086 2.3910 0.9143
24.7194 -22.3064 3.5754 0.8746
25.2283 -19.7035 3.4374 0.8792
24.5809 -17.8288 3.2607 0.8850
24.0093 -16.1443 3.1068 0.8901
24.1700 -13.8675 2.9923 0.8940
9.0668 -17.3620 1.6581 0.9244
9.7056 -17.0774 1.6628 0.9242
11.3895 -17.0886 1.7385 0.9209
22.8280 -23.7510 2.7887 0.8761
21.6316 -19.5201 2.4665 0.8896
21.1581 -17.7703 2.3390 0.8950
20.7480 -16.2043 2.2286 0.8997
20.0781 -13.5009 2.0482 0.9074
19.8036 -12.3177 1.9743 0.9106
20.2581 -10.6848 1.9388 0.9122
20.0613 -9.6861 1.8858 0.9145
9.7051 -17.0766 1.2180 0.9243
10.4778 -17.0000 1.2383 0.9231
12.2921 -17.0938 1.3056 0.9191
13.2432 -17.1001 1.3412 0.9170
14.2489 -17.1068 1.3806 0.9146
16.3770 -17.0392 1.4655 0.9096
18.3592 -17.7906 1.5853 0.9026
18.0802 -16.3153 1.5102 0.9070
17.6207 -13.7619 1.3864 0.9143
17.2625 -11.6076 1.2900 0.9200
17.6545 -9.3116 1.2377 0.9231
17.5447 -8.4710 1.2081 0.9249
6.7067 -17.0560 0.7227 0.9293
7.4189 -17.0607 0.7336 0.9282
10.4772 -16.9991 0.7874 0.9232
11.3884 -17.0870 0.8097 0.9211
12.2914 -17.0929 0.8302 0.9192
13.2425 -17.0993 0.8528 0.9171
15.5365 -14.0200 0.8252 0.9196
15.4211 -12.9519 0.7941 0.9225
15.8562 -10.6620 0.7534 0.9264
15.7793 -9.8146 0.7327 0.9283
15.7105 -9.0139 0.7142 0.9301
15.6490 -8.2538 0.6976 0.9316
6.7065 -17.0552 0.3096 0.9293
7.4186 -17.0599 0.3142 0.9283
12.2908 -17.0921 0.3556 0.9192
13.7137 -14.2681 0.3343 0.9239
14.1262 -9.4987 0.2875 0.9342
14.1000 -8.7701 0.2805 0.9357
14.0361 -6.7770 0.2633 0.9395
7.4183 -17.0592 -0.1047 0.9283
8.9138 -17.0690 -0.1084 0.9259
9.7038 -17.0742 -0.1106 0.9244
12.0411 -16.7448 -0.1161 0.9208
12.0605 -15.5730 -0.1109 0.9242
12.0777 -14.5001 -0.1062 0.9273
10.6195 -11.8654 -0.0897 0.9383
12.1070 -12.5965 -0.0984 0.9325
12.1194 -11.7441 -0.0950 0.9347
12.6742 -11.4371 -0.0961 0.9340
12.7113 -10.6760 -0.0935 0.9358
12.7209 -9.9351 -0.0909 0.9375
12.7296 -9.2329 -0.0885 0.9390
12.7375 -8.5649 -0.0864 0.9404
12.7446 -7.9270 -0.0845 0.9417
6.7059 -17.0538 -0.5160 0.9293
7.4179 -17.0584 -0.5238 0.9283
8.1528 -17.0633 -0.5325 0.9271
8.9134 -17.0683 -0.5422 0.9258
10.3997 -16.8734 -0.5581 0.9237
10.4938 -15.7447 -0.5328 0.9271
10.6530 -13.7556 -0.4899 0.9327
11.0387 -11.4851 -0.4485 0.9382
11.3973 -11.0443 -0.4469 0.9385
11.4462 -10.3289 -0.4341 0.9402
11.5288 -9.0041 -0.4119 0.9431
11.5646 -8.3879 -0.4023 0.9444
11.5971 -7.7981 -0.3935 0.9456
11.6535 -6.6862 -0.3783 0.9477
11.6999 -5.6490 -0.3658 0.9493
6.7056 -17.0530 -0.9293 0.9292
8.1524 -17.0625 -0.9590 0.9271
9.0304 -15.8894 -0.9269 0.9294
9.1780 -14.8912 -0.8871 0.9323
10.2679 -10.6830 -0.7515 0.9424
10.3454 -10.0250 -0.7306 0.9439
10.4162 -9.3994 -0.7115 0.9454
10.5398 -8.2317 -0.6782 0.9478
10.5938 -7.6838 -0.6637 0.9489
10.6430 -7.1566 -0.6504 0.9499
10.7289 -6.1557 -0.6273 0.9517
7.4117 -17.0441 -1.3628 0.9282
7.6443 -15.9992 -1.3001 0.9314
7.8531 -15.0378 -1.2439 0.9342
8.0412 -14.1488 -1.1932 0.9368
8.5055 -11.8281 -1.0682 0.9432
9.1610 -10.9984 -1.0495 0.9442
9.2726 -10.3605 -1.0195 0.9458
9.3748 -9.7538 -0.9919 0.9472
9.4685 -9.1752 -0.9667 0.9485
9.5543 -8.6217 -0.9436 0.9497
9.7716 -7.0875 -0.8851 0.9527
9.8323 -6.6114 -0.8687 0.9536
9.9385 -5.7022 -0.8401 0.9551
6.3176 -16.0663 -1.6574 0.9330
6.5852 -15.1434 -1.5853 0.9358
6.8268 -14.2882 -1.5203 0.9383
7.0458 -13.4920 -1.4613 0.9407
7.2449 -12.7477 -1.4077 0.9428
7.4263 -12.0491 -1.3588 0.9447
7.6661 -11.5020 -1.3270 0.9460
8.0980 -11.2614 -1.3317 0.9458
8.2531 -10.6567 -1.2940 0.9473
8.3867 -10.0687 -1.2580 0.9487
8.5094 -9.5078 -1.2250 0.9500
8.6224 -8.9710 -1.1946 0.9512
8.7263 -8.4561 -1.1666 0.9523
8.8220 -7.9609 -1.1408 0.9534
8.9912 -7.0222 -1.0953 0.9552
9.1342 -6.1420 -1.0567 0.9567
9.1970 -5.7205 -1.0398 0.9574
9.3071 -4.9089 -1.0102 0.9586
5.6554 -14.3822 -1.8357 0.9396
5.9219 -13.6181 -1.7640 0.9419
6.1647 -12.9023 -1.6986 0.9440
6.3865 -12.2295 -1.6388 0.9459
6.5896 -11.5946 -1.5842 0.9477
7.0790 -11.4855 -1.6026 0.9471
7.2734 -10.9129 -1.5578 0.9485
7.4383 -10.3440 -1.5134 0.9500
7.5903 -9.8008 -1.4725 0.9513
8.1914 -7.3918 -1.3106 0.9565
8.5262 -5.7332 -1.2205 0.9595
8.5940 -5.3454 -1.2022 0.9601
8.6562 -4.9665 -1.1855 0.9606
8.7131 -4.5956 -1.1701 0.9611
5.1162 -13.0110 -1.9809 0.9451
6.0407 -11.5674 -1.8490 0.9486
6.3231 -11.1257 -1.8132 0.9496
6.5201 -10.5787 -1.7607 0.9510
6.8684 -9.5514 -1.6669 0.9536
7.2994 -8.1558 -1.5508 0.9567
7.6422 -6.8962 -1.4585 0.9593
7.7401 -6.5008 -1.4322 0.9600
7.9142 -5.7403 -1.3853 0.9613
7.9914 -5.3736 -1.3645 0.9618
8.0626 -5.0149 -1.3453 0.9624
8.1878 -4.3185 -1.3116 0.9633
5.0667 -11.6514 -2.0931 0.9498
5.6249 -10.7710 -2.0018 0.9519
6.2093 -9.3162 -1.8444 0.9556
6.3767 -8.8676 -1.7993 0.9567
7.0515 -6.8331 -1.6176 0.9610
7.2591 -6.0968 -1.5617 0.9623
7.3518 -5.7418 -1.5367 0.9629
7.6576 -4.3935 -1.4544 0.9648
7.7194 -4.0715 -1.4377 0.9652
7.7760 -3.7544 -1.4225 0.9656
4.4879 -11.4133 -2.3051 0.9513
4.7480 -10.9186 -2.2379 0.9527
4.9860 -10.4353 -2.1738 0.9540
5.4125 -9.5236 -2.0590 0.9564
5.6038 -9.0920 -2.0075 0.9575
5.7818 -8.6749 -1.9595 0.9585
6.5056 -6.7687 -1.7646 0.9625
6.7306 -6.0736 -1.7040 0.9638
6.8315 -5.7376 -1.6768 0.9643
7.0121 -5.0860 -1.6282 0.9654
7.0927 -4.7692 -1.6065 0.9658
7.2357 -4.1515 -1.5680 0.9666
4.6294 -9.6891 -2.2698 0.9570
5.2317 -8.4882 -2.1077 0.9601
5.5698 -7.7455 -2.0166 0.9617
5.7224 -7.3890 -1.9755 0.9625
6.5423 -5.1096 -1.7547 0.9666
6.6297 -4.8086 -1.7312 0.9671
6.7107 -4.5124 -1.7094 0.9675
6.7857 -4.2206 -1.6892 0.9679
6.8549 -3.9330 -1.6705 0.9682
6.9769 -3.3686 -1.6377 0.9688
3.8578 -9.8108 -2.4776 0.9576
4.0954 -9.4179 -2.4136 0.9587
4.3177 -9.0366 -2.3538 0.9597
4.5257 -8.6662 -2.2978 0.9606
5.0739 -7.6127 -2.1501 0.9631
5.2341 -7.2787 -2.1070 0.9638
5.3841 -6.9522 -2.0666 0.9645
5.8947 -5.7121 -1.9291 0.9668
6.1028 -5.1256 -1.8731 0.9678
6.2837 -4.5576 -1.8244 0.9686
6.3647 -4.2797 -1.8026 0.9690
6.5090 -3.7345 -1.7637 0.9696
6.5729 -3.4668 -1.7465 0.9699
3.6000 -9.1550 -2.5471 0.9602
3.8283 -8.8035 -2.4856 0.9611
4.0426 -8.4608 -2.4279 0.9620
4.4327 -7.7996 -2.3228 0.9636
4.7769 -7.1672 -2.2301 0.9650
4.9335 -6.8607 -2.1879 0.9657
5.0805 -6.5602 -2.1484 0.9663
5.2186 -6.2652 -2.1112 0.9669
5.3481 -5.9755 -2.0763 0.9674
5.4695 -5.6906 -2.0436 0.9679
5.6897 -5.1343 -1.9843 0.9688
5.8822 -4.5941 -1.9325 0.9696
6.1241 -3.8092 -1.8673 0.9706
6.3154 -3.0493 -1.8158 0.9714
3.7978 -7.9484 -2.4938 0.9640
3.9922 -7.6446 -2.4414 0.9648
4.3476 -7.0539 -2.3457 0.9661
4.5099 -6.7665 -2.3020 0.9668
4.6626 -6.4840 -2.2609 0.9673
5.0686 -5.6633 -2.1516 0.9689
5.1880 -5.3977 -2.1194 0.9694
5.3000 -5.1358 -2.0893 0.9698
5.5033 -4.6221 -2.0345 0.9706
5.6809 -4.1204 -1.9867 0.9712
5.7607 -3.8736 -1.9652 0.9716
5.8348 -3.6292 -1.9452 0.9718
5.9034 -3.3871 -1.9268 0.9721
5.9668 -3.1471 -1.9097 0.9723
6.0250 -2.9090 -1.8940 0.9726
3.1686 -8.0581 -2.6632 0.9644
3.3793 -7.7712 -2.6065 0.9652
3.5783 -7.4891 -2.5529 0.9659
3.9432 -6.9383 -2.4546 0.9672
4.5573 -5.8845 -2.2893 0.9693
4.6894 -5.6300 -2.2537 0.9698
4.8139 -5.3786 -2.2202 0.9702
4.9309 -5.1303 -2.1886 0.9707
5.0409 -4.8848 -2.1590 0.9711
5.1442 -4.6421 -2.1312 0.9714
5.2410 -4.4018 -2.1051 0.9718
5.3316 -4.1640 -2.0808 0.9721
5.4162 -3.9284 -2.0580 0.9724
5.4951 -3.6950 -2.0367 0.9727
5.5684 -3.4635 -2.0170 0.9729
5.6363 -3.2338 -1.9987 0.9732
5.6991 -3.0059 -1.9818 0.9734
5.7568 -2.7795 -1.9662 0.9736
2.9861 -7.5938 -2.7124 0.9662
3.3802 -7.0745 -2.6062 0.9675
3.7329 -6.5682 -2.5113 0.9687
3.8950 -6.3196 -2.4676 0.9692
4.3298 -5.5907 -2.3505 0.9706
4.4588 -5.3530 -2.3158 0.9711
4.5804 -5.1178 -2.2830 0.9715
4.6951 -4.8849 -2.2522 0.9718
4.9994 -4.1989 -2.1702 0.9729
5.1719 -3.7512 -2.1238 0.9734
5.2496 -3.5299 -2.1028 0.9737
5.3891 -3.0920 -2.0653 0.9742
2.8211 -7.1743 -2.7568 0.9678
3.0158 -6.9351 -2.7044 0.9684
3.3754 -6.4634 -2.6075 0.9695
3.6983 -6.0004 -2.5206 0.9705
3.8470 -5.7720 -2.4805 0.9710
4.1209 -5.3211 -2.4068 0.9718
4.3656 -4.8777 -2.3409 0.9726
4.5832 -4.4413 -2.2823 0.9733
4.6826 -4.2255 -2.2555 0.9736
4.7760 -4.0112 -2.2304 0.9739
4.8635 -3.7984 -2.2068 0.9741
5.1593 -2.9602 -2.1271 0.9750
5.2205 -2.7535 -2.1107 0.9752
2.6711 -6.7929 -2.7972 0.9692
2.8583 -6.5731 -2.7468 0.9698
3.3655 -5.9217 -2.6102 0.9712
3.5177 -5.7074 -2.5692 0.9717
3.7988 -5.2828 -2.4935 0.9725
4.0510 -4.8635 -2.4256 0.9733
4.2764 -4.4493 -2.3649 0.9739
4.4770 -4.0399 -2.3109 0.9745
4.7348 -3.4342 -2.2415 0.9753
4.8100 -3.2343 -2.2212 0.9755
5.0054 -2.6400 -2.1686 0.9761
5.0609 -2.4435 -2.1537 0.9762
2.5341 -6.4444 -2.8341 0.9705
3.2038 -5.6372 -2.6537 0.9724
3.3512 -5.4373 -2.6141 0.9728
3.9825 -4.4497 -2.4440 0.9745
4.0894 -4.2547 -2.4153 0.9748
4.3750 -3.6745 -2.3383 0.9756
4.5381 -3.2915 -2.2944 0.9761
4.6119 -3.1011 -2.2746 0.9763
4.7447 -2.7223 -2.2388 0.9766
4.8586 -2.3458 -2.2081 0.9770
2.4082 -6.1243 -2.8680 0.9717
2.7468 -5.7490 -2.7768 0.9726
3.4619 -4.8142 -2.5842 0.9745
3.7006 -4.4428 -2.5200 0.9751
3.8108 -4.2578 -2.4903 0.9754
4.1066 -3.7057 -2.4106 0.9762
4.2765 -3.3400 -2.3649 0.9766
4.3539 -3.1579 -2.3440 0.9768
4.4938 -2.7951 -2.3064 0.9772
4.6147 -2.4340 -2.2738 0.9775
4.6684 -2.2541 -2.2593 0.9776
2.2921 -5.8290 -2.8993 0.9728
2.4590 -5.6548 -2.8543 0.9732
2.6184 -5.4802 -2.8114 0.9736
2.9156 -5.1301 -2.7314 0.9743
3.0538 -4.9548 -2.6941 0.9747
3.1855 -4.7794 -2.6587 0.9750
3.3108 -4.6040 -2.6249 0.9753
3.7519 -3.9036 -2.5062 0.9764
3.8480 -3.7288 -2.4803 0.9767
3.9388 -3.5543 -2.4558 0.9769
4.1051 -3.2061 -2.4110 0.9773
4.2517 -2.8589 -2.3716 0.9777
4.4366 -2.3400 -2.3218 0.9781
4.4893 -2.1676 -2.3076 0.9783
2.1845 -5.5555 -2.9282 0.9738
2.4991 -5.2305 -2.8435 0.9745
2.9203 -4.7380 -2.7301 0.9755
3.5987 -3.7442 -2.5474 0.9771
4.0177 -2.9141 -2.4346 0.9781
4.2123 -2.4168 -2.3822 0.9786
4.2683 -2.2513 -2.3671 0.9787
4.3200 -2.0858 -2.3532 0.9789
2.2395 -5.1501 -2.9134 0.9750
2.3879 -4.9977 -2.8735 0.9753
2.6656 -4.6902 -2.7987 0.9760
2.9190 -4.3796 -2.7304 0.9766
3.1494 -4.0667 -2.6684 0.9771
3.2564 -3.9095 -2.6396 0.9773
3.4546 -3.5942 -2.5862 0.9778
3.5460 -3.4362 -2.5616 0.9780
3.7142 -3.1195 -2.5163 0.9784
3.7912 -2.9610 -2.4956 0.9786
3.8636 -2.8023 -2.4761 0.9787
4.1090 -2.1672 -2.4100 0.9793
2.4210 -4.6360 -2.8645 0.9764
2.6779 -4.3448 -2.7954 0.9770
2.7979 -4.1979 -2.7631 0.9773
2.9124 -4.0501 -2.7322 0.9775
3.0216 -3.9016 -2.7028 0.9777
3.1256 -3.7525 -2.6748 0.9780
3.4920 -3.1511 -2.5761 0.9788
3.6469 -2.8483 -2.5344 0.9791
3.7176 -2.6965 -2.5154 0.9793
3.9040 -2.2399 -2.4652 0.9797
4.0074 -1.9349 -2.4373 0.9799
1.9039 -4.8418 -3.0038 0.9763
2.0480 -4.7095 -2.9650 0.9766
2.1862 -4.5756 -2.9278 0.9768
2.4458 -4.3035 -2.8579 0.9774
2.6837 -4.0266 -2.7938 0.9779
2.7949 -3.8866 -2.7639 0.9781
3.0020 -3.6041 -2.7081 0.9786
3.0982 -3.4617 -2.6822 0.9788
3.3588 -3.0309 -2.6120 0.9793
3.6439 -2.4502 -2.5352 0.9799
3.7613 -2.1580 -2.5036 0.9802
3.8625 -1.8649 -2.4764 0.9804
