ply
format ascii 1.0
element vertex 145
property float32 x
property float32 y
property float32 z
property float32 I
end_header
-16.2129 -21.8906 -1.3815 0.8966
-17.1542 -20.0171 -1.9329 0.8997
-16.1279 -21.7759 -1.9869 0.8970
-16.0535 -21.6754 -2.5895 0.8973
-16.9907 -19.8264 -3.1016 0.9002
-15.9309 -21.5099 -3.1795 0.8978
-16.8737 -19.6899 -3.6741 0.9005
-37.9712 -17.6890 -6.9008 0.8438
-27.8341 -5.2746 -5.3248 0.8911
-27.7013 -5.2494 -5.9597 0.8911
-39.1225 -16.5607 -8.9801 0.8406
-37.6685 -17.5480 -8.7840 0.8438
-38.9322 -16.4801 -9.9360 0.8405
-37.5184 -17.4780 -9.7276 0.8436
-27.9992 -37.8045 -11.0564 0.8242
-31.1190 -33.8047 -11.8966 0.8271
-29.3823 -27.6864 -11.4289 0.8455
-26.3580 -26.6665 -10.6145 0.8557
-23.6488 -25.6898 -9.8849 0.8649
-21.2148 -24.7555 -9.2295 0.8732
-15.2763 -20.6261 -7.2662 0.8988
-40.6869 -22.5991 -14.3153 0.8230
-32.8917 -23.1647 -12.3739 0.8450
-27.5231 -22.4689 -10.9282 0.8618
-22.9351 -21.6113 -9.6927 0.8764
-20.9012 -21.1458 -9.1450 0.8830
-19.0236 -20.6654 -8.6394 0.8891
-17.2899 -20.1755 -8.1725 0.8948
-15.6883 -19.6804 -7.7412 0.9000
-44.5482 -11.7712 -15.3163 0.8235
-40.9597 -14.0014 -14.3888 0.8332
-38.8088 -14.8256 -13.8095 0.8394
-36.6389 -15.5094 -13.2252 0.8456
-36.0616 -16.7994 -13.2240 0.8456
-33.8700 -17.2681 -12.6374 0.8519
-27.5587 -17.9794 -10.9378 0.8705
-20.3365 -17.8424 -8.9929 0.8922
-15.8754 -17.2455 -7.7916 0.9059
-14.5587 -16.9885 -7.4370 0.9100
-13.3212 -16.7110 -7.1038 0.9139
-35.4736 -6.7223 -12.9114 0.8578
-30.9763 -11.8335 -11.8581 0.8686
-26.6176 -13.5706 -10.6844 0.8808
-25.1579 -13.9737 -10.2913 0.8849
-23.7155 -14.2977 -9.9029 0.8890
-18.2820 -14.9247 -8.4397 0.9046
-17.0338 -14.9448 -8.1036 0.9082
-15.8355 -14.9215 -7.7809 0.9117
-13.5921 -14.7651 -7.1767 0.9183
-10.6060 -14.3202 -6.3726 0.9271
-27.8157 -5.2711 -10.8492 0.8858
-26.8251 -8.1177 -10.7402 0.8869
-25.9140 -8.8583 -10.4949 0.8893
-23.9467 -10.1367 -9.9651 0.8946
-22.9132 -10.6742 -9.6868 0.8974
-19.7352 -11.8980 -8.8310 0.9060
-15.6005 -12.7357 -7.7176 0.9173
-13.6694 -12.8804 -7.1975 0.9227
-12.7482 -12.8974 -6.9495 0.9253
-11.8588 -12.8822 -6.7100 0.9277
-9.3876 -12.6752 -6.0445 0.9347
-23.8782 -4.5249 -9.9467 0.9003
-23.3876 -5.2989 -9.8146 0.9015
-22.8298 -6.0324 -9.6644 0.9030
-21.5424 -7.3639 -9.3177 0.9063
-20.8284 -7.9568 -9.1254 0.9081
-20.0779 -8.4991 -8.9233 0.9101
-19.2986 -8.9903 -8.7134 0.9121
-18.4975 -9.4307 -8.4977 0.9142
-16.0291 -10.4574 -7.8330 0.9206
-15.2033 -10.7073 -7.6106 0.9228
-14.3840 -10.9146 -7.3900 0.9249
-13.5748 -11.0820 -7.1721 0.9271
-12.7791 -11.2118 -6.9578 0.9292
-11.9994 -11.3069 -6.7478 0.9312
-11.2381 -11.3696 -6.5428 0.9332
-9.0796 -11.3900 -5.9616 0.9390
-8.4052 -11.3488 -5.7800 0.9408
-20.1770 -3.8235 -8.9500 0.9143
-18.9014 -5.7199 -8.6065 0.9174
-17.2408 -7.2981 -8.1593 0.9216
-14.6764 -8.8481 -7.4687 0.9280
-14.0059 -9.1375 -7.2882 0.9296
-13.3321 -9.3894 -7.1067 0.9313
-11.9890 -9.7874 -6.7450 0.9347
-9.3975 -10.2086 -6.0472 0.9413
-17.4229 -3.3016 -8.2083 0.9248
-17.1264 -3.8803 -8.1285 0.9255
-16.7867 -4.4356 -8.0370 0.9263
-15.9919 -5.4666 -7.8230 0.9282
-15.5446 -5.9383 -7.7025 0.9293
-14.0501 -7.1633 -7.3001 0.9328
-13.5144 -7.5064 -7.1558 0.9341
-7.9549 -9.2826 -5.6587 0.9475
-7.4297 -9.3203 -5.5173 0.9488
-6.9162 -9.3383 -5.3790 0.9501
-15.2916 -2.8978 -7.6344 0.9330
-14.1168 -4.8256 -7.3180 0.9357
-12.9355 -6.0261 -6.9999 0.9384
-11.5872 -6.9857 -6.6368 0.9415
-11.1143 -7.2510 -6.5095 0.9426
-10.6343 -7.4895 -6.3802 0.9437
-9.6625 -7.8882 -6.1185 0.9459
-8.2068 -8.3029 -5.7265 0.9493
-7.7291 -8.3962 -5.5979 0.9504
-7.2576 -8.4688 -5.4709 0.9515
-6.7933 -8.5220 -5.3459 0.9526
-12.6057 -4.3091 -6.9111 0.9417
-12.2931 -4.6962 -6.8269 0.9424
-10.4510 -6.3007 -6.3309 0.9465
-10.0434 -6.5523 -6.2211 0.9474
-9.2070 -6.9864 -5.9959 0.9493
-8.3556 -7.3309 -5.7666 0.9511
-7.5030 -7.5908 -5.5370 0.9530
-7.0799 -7.6909 -5.4230 0.9540
-6.6606 -7.7723 -5.3101 0.9549
-5.8379 -7.8823 -5.0886 0.9568
-12.2033 -2.3125 -6.8027 0.9449
-12.0307 -2.7257 -6.7562 0.9453
-11.0924 -4.2375 -6.5036 0.9473
-10.8046 -4.5737 -6.4261 0.9479
-10.4992 -4.8911 -6.3439 0.9485
-9.8438 -5.4676 -6.1674 0.9499
-9.4976 -5.7259 -6.0741 0.9507
-9.1417 -5.9641 -5.9783 0.9514
-8.7778 -6.1820 -5.8803 0.9522
-8.4078 -6.3799 -5.7806 0.9530
-7.6557 -6.7168 -5.5781 0.9546
-7.2766 -6.8567 -5.4760 0.9554
-6.1434 -7.1687 -5.1709 0.9579
-5.4021 -7.2939 -4.9712 0.9595
-11.0465 -2.0933 -6.4912 0.9494
-10.5311 -3.1869 -6.3524 0.9505
-10.3165 -3.5266 -6.2947 0.9509
-9.8321 -4.1620 -6.1642 0.9519
-9.5652 -4.4560 -6.0923 0.9524
-8.6856 -5.2364 -5.8554 0.9542
-8.3713 -5.4615 -5.7708 0.9549
-8.0492 -5.6689 -5.6841 0.9555
-7.7208 -5.8586 -5.5956 0.9562
-7.3873 -6.0308 -5.5058 0.9569
-7.0503 -6.1857 -5.4151 0.9576
-6.7110 -6.3236 -5.3237 0.9583
-6.3705 -6.4451 -5.2320 0.9590
-5.0181 -6.7754 -4.8678 0.9618
