ply
format ascii 1.0
element vertex 420
property float32 x
property float32 y
property float32 z
property float32 I
end_header
29.1779 13.0555 5.6364 0.8782
37.8909 23.8832 7.8977 0.8337
15.6593 18.9890 4.3399 0.9049
21.1547 34.6667 7.1609 0.8479
12.8953 29.9788 5.7543 0.8759
11.7750 30.2868 5.7298 0.8764
10.6279 30.4919 5.6938 0.8771
32.3023 13.1011 5.3400 0.8684
24.7249 13.2378 4.2965 0.8927
37.8284 23.8438 6.8502 0.8345
32.4201 23.7999 6.1612 0.8498
30.4344 24.0462 5.9420 0.8547
26.9686 32.7030 6.4937 0.8424
13.4755 31.3276 5.2244 0.8711
11.8994 30.6067 5.0307 0.8756
10.6478 30.5492 4.9561 0.8773
26.5238 11.8679 3.7839 0.8894
24.7596 13.2564 3.6573 0.8929
22.7499 13.2378 3.4276 0.8993
31.7459 23.3050 5.1283 0.8531
29.8653 23.5966 4.9565 0.8577
25.1171 24.5972 4.5779 0.8678
10.9130 31.3100 4.3178 0.8748
19.4309 7.8808 2.2516 0.9191
22.1475 9.9098 2.6055 0.9070
22.4391 11.0100 2.6840 0.9043
22.7727 12.1926 2.7738 0.9013
19.5645 13.3227 2.5417 0.9092
17.8581 13.1098 2.3789 0.9147
16.6778 13.1772 2.2824 0.9180
26.6695 22.6509 3.7573 0.8687
11.6117 33.3145 3.7884 0.8677
18.8752 7.6554 1.7243 0.9215
19.1927 9.4171 1.8098 0.9178
17.8598 13.1111 1.8755 0.9149
16.8827 13.3390 1.8214 0.9173
15.7908 13.4113 1.7538 0.9202
14.4703 13.1999 1.6580 0.9244
22.6125 23.7706 2.7773 0.8766
16.3240 18.4249 2.0838 0.9059
19.5795 23.7428 2.6052 0.8838
18.5153 24.1460 2.5758 0.8850
9.5428 13.4023 1.3928 0.9361
11.6533 33.4339 2.9973 0.8675
17.3705 7.0451 1.1624 0.9276
16.6802 7.4635 1.1332 0.9294
16.7750 8.2308 1.1587 0.9278
16.8818 9.0386 1.1874 0.9261
17.4599 12.8175 1.3431 0.9169
16.8549 13.3171 1.3320 0.9175
15.8346 13.4486 1.2883 0.9201
14.5988 13.3171 1.2253 0.9239
13.4819 13.2028 1.1701 0.9272
11.7274 13.2367 1.0966 0.9316
19.7395 23.9368 1.9239 0.8831
15.1769 29.3621 2.0496 0.8759
14.9564 8.0077 0.6690 0.9343
15.2407 11.1883 0.7455 0.9271
15.3338 12.1152 0.7706 0.9248
15.4381 13.1118 0.7987 0.9221
14.6000 13.3182 0.7792 0.9239
13.5961 13.3146 0.7504 0.9267
12.7439 13.3966 0.7291 0.9287
10.9137 13.2343 0.6764 0.9336
10.1537 13.2416 0.6580 0.9354
9.7430 13.6835 0.6624 0.9350
14.5873 25.9270 1.1730 0.8877
14.7583 28.5523 1.2674 0.8793
14.6408 30.9667 1.3507 0.8719
14.8290 34.4740 1.4798 0.8605
14.9690 38.5019 1.6289 0.8476
14.0065 5.6807 0.2553 0.9413
13.4711 8.4911 0.2690 0.9383
13.5560 10.7106 0.2918 0.9332
12.7820 13.4366 0.3133 0.9285
11.8373 13.3607 0.3015 0.9311
10.0111 16.4053 0.3246 0.9260
9.8525 19.0613 0.3625 0.9177
9.8729 22.9523 0.4221 0.9049
9.8480 25.3302 0.4591 0.8970
12.7702 5.1793 -0.0776 0.9464
12.7558 6.8296 -0.0815 0.9438
12.1646 8.2836 -0.0829 0.9428
12.1570 8.9245 -0.0849 0.9415
12.1393 10.3101 -0.0897 0.9383
12.1290 11.0642 -0.0924 0.9364
12.1051 12.7250 -0.0989 0.9322
10.1783 13.2736 -0.0942 0.9353
10.0817 15.2766 -0.1030 0.9294
9.9087 17.6114 -0.1138 0.9223
10.1279 19.5941 -0.1242 0.9156
10.1715 23.6465 -0.1449 0.9022
9.9958 25.7103 -0.1553 0.8955
10.2158 29.3095 -0.1748 0.8832
11.7343 4.7592 -0.3566 0.9506
11.7162 5.2424 -0.3614 0.9499
11.0402 8.1047 -0.3856 0.9467
11.0056 8.6956 -0.3950 0.9454
10.9677 9.3150 -0.4052 0.9440
10.9259 9.9667 -0.4164 0.9425
10.8800 10.6547 -0.4288 0.9409
10.8294 11.3840 -0.4424 0.9391
10.7735 12.1600 -0.4575 0.9371
10.7118 12.9895 -0.4741 0.9348
10.1790 13.2745 -0.4710 0.9353
10.2515 15.5340 -0.5241 0.9282
10.2087 16.7292 -0.5518 0.9246
10.0355 17.8367 -0.5763 0.9214
10.2570 21.6944 -0.6757 0.9084
10.8528 4.4017 -0.5939 0.9542
10.7599 5.7609 -0.6190 0.9523
10.6807 6.7322 -0.6403 0.9507
10.6218 7.2330 -0.6517 0.9498
10.0012 8.4942 -0.6654 0.9488
9.8705 9.6661 -0.7006 0.9462
9.7957 10.2974 -0.7208 0.9447
9.5245 12.4210 -0.7938 0.9392
9.4153 13.2232 -0.8232 0.9371
9.3327 14.1418 -0.8593 0.9344
9.2738 15.1971 -0.9029 0.9312
9.1382 16.2420 -0.9451 0.9281
8.8644 18.7491 -1.0518 0.9203
8.6489 20.1066 -1.1100 0.9161
8.4040 21.6160 -1.1762 0.9113
10.0929 4.0934 -0.7986 0.9573
10.0195 4.9162 -0.8183 0.9562
9.9770 5.3417 -0.8298 0.9556
9.8788 6.2268 -0.8562 0.9542
9.8227 6.6888 -0.8713 0.9535
9.1895 7.8048 -0.8840 0.9528
9.1135 8.3134 -0.9045 0.9517
9.0307 8.8438 -0.9268 0.9506
8.9404 9.3983 -0.9511 0.9493
8.7343 10.5915 -1.0066 0.9464
8.6167 11.2371 -1.0383 0.9448
8.3464 12.6473 -1.1111 0.9410
8.1909 13.4226 -1.1529 0.9389
7.5438 17.5261 -1.3976 0.9263
7.2941 18.7612 -1.4759 0.9224
6.9918 20.0597 -1.5576 0.9183
9.4304 3.8247 -0.9770 0.9599
9.3906 4.2018 -0.9877 0.9595
9.2982 4.9783 -1.0126 0.9585
9.2450 5.3795 -1.0269 0.9579
9.1868 5.7906 -1.0426 0.9573
9.1233 6.2126 -1.0597 0.9566
9.0541 6.6467 -1.0783 0.9559
8.9738 7.0902 -1.0980 0.9551
8.7580 7.4383 -1.1031 0.9549
7.7244 10.8485 -1.2785 0.9479
6.8463 14.4806 -1.5378 0.9377
6.6485 15.4559 -1.6152 0.9346
6.3812 16.4131 -1.6906 0.9317
8.7561 4.2963 -1.1586 0.9615
8.6459 5.0309 -1.1882 0.9605
8.5145 5.7980 -1.2236 0.9594
8.3591 6.6045 -1.2655 0.9580
8.2695 7.0234 -1.2888 0.9572
8.1397 7.4251 -1.3087 0.9566
7.7113 7.5517 -1.2821 0.9575
7.3656 8.9317 -1.3752 0.9544
7.0845 9.9498 -1.4509 0.9520
6.9258 10.4947 -1.4936 0.9506
6.7534 11.0670 -1.5400 0.9491
6.3613 12.3069 -1.6456 0.9457
5.6673 14.5768 -1.8578 0.9389
5.4062 15.5111 -1.9512 0.9360
8.2835 3.7064 -1.2858 0.9640
8.1777 4.3784 -1.3143 0.9632
8.0510 5.0747 -1.3484 0.9623
7.9012 5.8003 -1.3888 0.9612
7.6267 6.9571 -1.4627 0.9592
6.8266 8.2782 -1.5203 0.9576
6.6887 8.7228 -1.5575 0.9566
6.5398 9.1848 -1.5976 0.9555
6.3789 9.6658 -1.6409 0.9543
6.0164 10.6935 -1.7385 0.9516
5.8122 11.2446 -1.7935 0.9501
5.5905 11.8244 -1.8532 0.9485
5.3493 12.4360 -1.9181 0.9468
5.0865 13.0831 -1.9889 0.9449
7.8658 3.1901 -1.3983 0.9662
7.7662 3.8106 -1.4251 0.9655
7.6464 4.4493 -1.4574 0.9648
7.5043 5.1101 -1.4957 0.9639
7.2441 6.1525 -1.5657 0.9622
6.9073 7.2611 -1.6510 0.9602
6.5629 7.4075 -1.6303 0.9607
6.3584 7.7104 -1.6464 0.9603
6.2195 8.1109 -1.6838 0.9594
6.0701 8.5251 -1.7241 0.9585
5.9092 8.9542 -1.7674 0.9574
5.3477 10.3459 -1.9186 0.9539
5.1300 10.8504 -1.9772 0.9525
4.6396 11.9335 -2.1093 0.9494
4.3629 12.5174 -2.1838 0.9477
7.4483 3.0208 -1.5107 0.9678
7.3999 3.3110 -1.5238 0.9675
7.3466 3.6046 -1.5381 0.9672
7.2881 3.9021 -1.5539 0.9669
7.2243 4.2037 -1.5710 0.9666
7.1550 4.5099 -1.5897 0.9662
7.0798 4.8211 -1.6100 0.9657
6.9985 5.1377 -1.6319 0.9653
6.7146 6.1251 -1.7083 0.9637
6.6054 6.4686 -1.7377 0.9631
6.3543 7.1721 -1.8011 0.9618
5.8090 7.5756 -1.7944 0.9619
5.3301 8.7346 -1.9233 0.9592
4.7369 10.0190 -2.0831 0.9559
4.5085 10.4812 -2.1446 0.9546
4.2623 10.9630 -2.2109 0.9533
3.9966 11.4664 -2.2824 0.9518
6.9669 3.4184 -1.6404 0.9688
6.9078 3.6985 -1.6563 0.9685
6.8434 3.9821 -1.6736 0.9681
6.6160 4.8569 -1.7349 0.9670
6.5279 5.1577 -1.7586 0.9666
6.3314 5.7756 -1.8115 0.9656
6.2222 6.0934 -1.8409 0.9650
6.1053 6.4180 -1.8724 0.9644
5.9800 6.7496 -1.9061 0.9638
5.6374 7.3518 -1.9583 0.9628
5.1430 7.7932 -1.9737 0.9625
4.9752 8.1529 -2.0189 0.9617
4.1762 9.7088 -2.2341 0.9577
3.6847 10.5714 -2.3664 0.9553
6.6756 2.9870 -1.7188 0.9704
6.5621 3.5134 -1.7494 0.9699
6.4975 3.7808 -1.7668 0.9696
6.4275 4.0513 -1.7856 0.9693
6.1821 4.8845 -1.8517 0.9681
5.8781 5.7564 -1.9336 0.9668
5.7621 6.0572 -1.9648 0.9662
5.6382 6.3637 -1.9982 0.9657
5.5058 6.6765 -2.0338 0.9651
5.3613 6.9918 -2.0707 0.9644
5.2022 7.3061 -2.1079 0.9638
4.8338 7.3246 -2.0625 0.9646
4.6617 7.6393 -2.1033 0.9639
4.4867 7.9745 -2.1505 0.9631
4.2998 8.3186 -2.2008 0.9623
6.4089 2.5993 -1.7906 0.9718
6.1817 3.5970 -1.8518 0.9709
6.1119 3.8524 -1.8706 0.9706
6.0365 4.1106 -1.8909 0.9703
5.9552 4.3718 -1.9128 0.9699
5.7743 4.9042 -1.9615 0.9692
5.6740 5.1759 -1.9885 0.9688
5.5668 5.4516 -2.0174 0.9683
5.4524 5.7316 -2.0482 0.9678
5.2000 6.3057 -2.1162 0.9668
4.9122 6.8990 -2.1928 0.9656
4.7477 7.1942 -2.2318 0.9650
4.2124 7.4871 -2.2243 0.9651
4.0312 7.7990 -2.2731 0.9644
6.1180 2.4813 -1.8690 0.9729
5.8920 3.4285 -1.9298 0.9721
5.7479 3.9141 -1.9686 0.9715
5.5810 4.4096 -2.0136 0.9709
5.4884 4.6614 -2.0385 0.9705
4.6431 6.5209 -2.2662 0.9673
4.4896 6.8031 -2.3075 0.9667
4.3207 7.0805 -2.3482 0.9661
3.7916 7.3355 -2.3376 0.9663
3.6052 7.6254 -2.3878 0.9655
3.4073 7.9212 -2.4411 0.9648
3.1971 8.2233 -2.4977 0.9640
2.9738 8.5319 -2.5579 0.9631
5.8491 2.3723 -1.9414 0.9739
5.8004 2.5953 -1.9545 0.9738
5.5564 3.5023 -2.0202 0.9729
5.4825 3.7333 -2.0401 0.9726
5.3177 4.2015 -2.0845 0.9720
5.2264 4.4389 -2.1091 0.9717
4.6716 5.6650 -2.2585 0.9697
4.3979 6.1766 -2.3322 0.9688
3.9184 6.9645 -2.4579 0.9671
3.7250 7.2067 -2.4952 0.9666
3.4062 7.2045 -2.4512 0.9672
3.2058 7.4527 -2.4954 0.9666
2.7900 8.0047 -2.6073 0.9651
5.5513 2.4839 -2.0216 0.9747
5.4984 2.6978 -2.0358 0.9745
5.4406 2.9129 -2.0514 0.9743
5.3779 3.1293 -2.0683 0.9741
5.1588 3.7871 -2.1273 0.9734
5.0748 4.0096 -2.1499 0.9731
4.9851 4.2339 -2.1741 0.9728
4.8893 4.4601 -2.1999 0.9725
4.7873 4.6882 -2.2273 0.9722
4.4414 5.3858 -2.3205 0.9710
4.1744 5.8628 -2.3924 0.9701
4.0291 6.1052 -2.4315 0.9696
3.7126 6.5986 -2.5167 0.9686
3.5386 6.8460 -2.5617 0.9680
3.3525 7.0909 -2.6072 0.9675
3.0817 7.1642 -2.5924 0.9677
5.3194 2.3802 -2.0840 0.9755
5.2672 2.5844 -2.0981 0.9754
5.1484 2.9957 -2.1301 0.9750
5.0816 3.2030 -2.1481 0.9748
4.8500 3.8320 -2.2104 0.9741
4.6679 4.2581 -2.2595 0.9735
4.5680 4.4734 -2.2864 0.9732
3.9697 5.5752 -2.4475 0.9713
3.8284 5.8011 -2.4855 0.9709
3.5215 6.2590 -2.5682 0.9700
3.3551 6.4910 -2.6130 0.9694
2.7670 7.1170 -2.7307 0.9681
2.4790 7.1123 -2.6935 0.9685
5.1499 2.0887 -2.1297 0.9765
5.1029 2.2832 -2.1423 0.9763
4.9952 2.6744 -2.1713 0.9760
4.9343 2.8712 -2.1877 0.9758
4.7979 3.2672 -2.2245 0.9754
4.7221 3.4666 -2.2449 0.9752
4.6411 3.6669 -2.2667 0.9750
4.5546 3.8683 -2.2900 0.9747
4.4626 4.0708 -2.3148 0.9745
4.3647 4.2744 -2.3411 0.9742
3.7812 5.3105 -2.4983 0.9725
3.6439 5.5216 -2.5352 0.9721
3.4991 5.7341 -2.5742 0.9716
3.3464 5.9479 -2.6153 0.9712
2.8379 6.5975 -2.7523 0.9697
2.6481 6.8111 -2.8005 0.9692
4.9462 2.0061 -2.1845 0.9772
4.8492 2.3793 -2.2107 0.9769
4.7939 2.5667 -2.2255 0.9768
4.6000 3.1324 -2.2777 0.9762
4.4462 3.5129 -2.3192 0.9758
4.2714 3.8964 -2.3663 0.9753
4.0743 4.2829 -2.4193 0.9748
3.8534 4.6727 -2.4788 0.9742
3.4736 5.2636 -2.5811 0.9731
3.3332 5.4622 -2.6189 0.9727
2.6945 6.2642 -2.7909 0.9710
4.6592 2.2861 -2.2618 0.9776
4.4827 2.8255 -2.3093 0.9771
4.3417 3.1873 -2.3473 0.9768
4.2639 3.3689 -2.3683 0.9766
3.9993 3.9165 -2.4395 0.9759
3.5682 4.6533 -2.5556 0.9747
3.3158 5.0244 -2.6236 0.9741
3.1796 5.2105 -2.6603 0.9737
3.0365 5.3969 -2.6988 0.9733
2.8861 5.5836 -2.7393 0.9729
2.7283 5.7705 -2.7818 0.9725
4.5740 1.8551 -2.2848 0.9785
4.4269 2.3702 -2.3244 0.9781
4.3692 2.5424 -2.3399 0.9780
4.3070 2.7148 -2.3567 0.9778
4.1689 3.0604 -2.3939 0.9775
4.0927 3.2336 -2.4144 0.9773
4.0115 3.4071 -2.4362 0.9771
3.9254 3.5808 -2.4594 0.9769
3.7375 3.9288 -2.5100 0.9764
3.6354 4.1032 -2.5375 0.9761
3.2946 4.6271 -2.6293 0.9753
2.8983 5.1514 -2.7360 0.9743
2.7529 5.3260 -2.7752 0.9739
2.6005 5.5003 -2.8162 0.9735
4.2588 2.2802 -2.3696 0.9787
4.1413 2.6103 -2.4013 0.9784
4.0060 2.9409 -2.4377 0.9781
3.8522 3.2717 -2.4791 0.9777
3.7680 3.4372 -2.5018 0.9775
3.4852 3.9337 -2.5780 0.9769
3.1538 4.4294 -2.6672 0.9761
3.0319 4.5942 -2.7000 0.9758
2.7697 4.9227 -2.7707 0.9751
2.6290 5.0863 -2.8085 0.9748
2.4818 5.2493 -2.8482 0.9745
2.1667 5.5730 -2.9330 0.9737
4.2413 1.7202 -2.3744 0.9796
4.1510 2.0367 -2.3987 0.9794
4.0997 2.1950 -2.4125 0.9793
3.9846 2.5115 -2.4435 0.9790
3.7793 2.9860 -2.4988 0.9785
3.7019 3.1440 -2.5196 0.9784
3.6197 3.3019 -2.5417 0.9782
3.5327 3.4596 -2.5652 0.9780
3.4409 3.6171 -2.5899 0.9778
3.1346 4.0878 -2.6724 0.9771
3.0218 4.2439 -2.7028 0.9768
2.7794 4.5546 -2.7680 0.9762
2.6494 4.7090 -2.8030 0.9759
2.5134 4.8626 -2.8397 0.9756
2.3712 5.0153 -2.8780 0.9753
2.0674 5.3175 -2.9598 0.9746
4.0874 1.6577 -2.4158 0.9801
3.9989 1.9621 -2.4396 0.9799
3.8360 2.4179 -2.4835 0.9795
3.7734 2.5695 -2.5004 0.9794
3.7065 2.7210 -2.5184 0.9792
3.5596 3.0233 -2.5579 0.9789
3.4795 3.1740 -2.5795 0.9787
3.3947 3.3244 -2.6023 0.9786
3.3052 3.4744 -2.6265 0.9784
3.2108 3.6240 -2.6519 0.9782
2.8976 4.0696 -2.7362 0.9775
2.7828 4.2167 -2.7671 0.9772
2.5367 4.5086 -2.8334 0.9767
1.8188 5.2183 -3.0267 0.9751
3.9409 1.5983 -2.4553 0.9805
3.8994 1.7448 -2.4664 0.9805
3.7519 2.1831 -2.5062 0.9802
3.6335 2.4743 -2.5380 0.9799
3.5682 2.6194 -2.5556 0.9798
3.4986 2.7643 -2.5743 0.9796
3.2639 3.1964 -2.6376 0.9791
3.1767 3.3394 -2.6610 0.9789
2.9883 3.6237 -2.7118 0.9785
2.8869 3.7648 -2.7391 0.9783
2.7805 3.9051 -2.7677 0.9781
2.6691 4.0444 -2.7977 0.9779
2.4307 4.3202 -2.8619 0.9774
1.8880 4.8561 -3.0081 0.9762
1.7379 4.9860 -3.0485 0.9759
