ply
format ascii 1.0
element vertex 364
property float32 x
property float32 y
property float32 z
property float32 I
end_header
-5.1798 -13.9819 1.9417 0.9416
-4.8419 -14.6493 2.0091 0.9397
-4.5741 -15.6909 2.1283 0.9362
-5.1223 -13.8267 1.5833 0.9424
-4.5191 -15.5025 1.7340 0.9371
7.9089 -17.3491 2.0474 0.9262
-4.5033 -15.4483 1.3622 0.9374
6.4555 -17.3297 1.5655 0.9285
7.1708 -17.3386 1.5883 0.9274
7.9083 -17.3477 1.6139 0.9263
8.6709 -17.3571 1.6425 0.9251
-5.0334 -13.5867 0.8985 0.9436
-4.4492 -15.2624 0.9858 0.9383
3.1190 -17.2633 1.0878 0.9321
3.7644 -17.2951 1.0976 0.9315
4.4160 -17.3032 1.1074 0.9309
5.7592 -17.3197 1.1318 0.9295
7.7789 -17.0638 1.1629 0.9276
-4.9914 -13.4734 0.5666 0.9441
-4.7137 -14.2612 0.5923 0.9416
5.0799 -17.3100 0.7113 0.9303
5.7587 -17.3183 0.7196 0.9295
6.3527 -17.0536 0.7176 0.9297
7.0549 -17.0583 0.7279 0.9288
7.7786 -17.0630 0.7394 0.9277
-4.6686 -14.1250 0.2513 0.9422
0.0155 -17.1895 0.2904 0.9335
1.2456 -17.2616 0.2923 0.9331
3.1229 -17.2846 0.2967 0.9321
3.7638 -17.2925 0.2989 0.9316
8.5261 -17.0672 0.3223 0.9265
-4.6389 -14.0351 -0.0832 0.9426
-3.9679 -15.6648 -0.0910 0.9374
0.0155 -17.2452 -0.0971 0.9333
1.2456 -17.2603 -0.0974 0.9331
1.8653 -17.2679 -0.0978 0.9329
3.7077 -17.0347 -0.0981 0.9326
4.3277 -16.9571 -0.0985 0.9324
4.9776 -16.9613 -0.0995 0.9317
6.3521 -17.0521 -0.1025 0.9298
7.0543 -17.0568 -0.1039 0.9288
8.5257 -17.0665 -0.1074 0.9265
-4.2706 -14.6499 -0.4297 0.9408
0.0155 -17.2439 -0.4855 0.9333
1.2455 -17.2590 -0.4872 0.9331
1.8388 -17.0218 -0.4821 0.9338
2.4545 -17.0258 -0.4844 0.9335
3.0768 -17.0299 -0.4873 0.9331
3.7076 -17.0341 -0.4909 0.9326
4.3484 -17.0383 -0.4951 0.9321
4.9774 -16.9606 -0.4977 0.9317
7.0540 -17.0561 -0.5197 0.9288
-4.5378 -13.7292 -0.7333 0.9437
-0.5978 -17.2351 -0.8746 0.9333
0.0155 -17.2426 -0.8744 0.9333
0.6207 -17.0131 -0.8634 0.9341
1.2280 -17.0171 -0.8652 0.9339
1.8387 -17.0211 -0.8682 0.9337
5.6682 -17.0462 -0.9110 0.9306
6.3516 -17.0507 -0.9228 0.9297
7.7772 -17.0600 -0.9508 0.9277
8.5249 -17.0650 -0.9674 0.9264
0.6207 -17.0124 -1.2482 0.9340
2.4543 -17.0244 -1.2612 0.9333
3.0766 -17.0285 -1.2688 0.9330
3.7073 -17.0327 -1.2781 0.9325
4.9770 -16.9592 -1.2959 0.9316
5.6680 -17.0455 -1.3171 0.9305
6.3513 -17.0500 -1.3341 0.9296
7.0534 -17.0546 -1.3532 0.9287
-3.0570 -43.4516 -4.1819 0.8394
-0.5869 -16.9220 -1.6256 0.9342
0.6207 -17.0117 -1.6343 0.9339
1.2279 -17.0157 -1.6378 0.9337
1.8385 -17.0197 -1.6435 0.9335
3.7071 -17.0320 -1.6734 0.9324
4.9767 -16.9585 -1.6968 0.9314
6.1705 -16.5644 -1.6970 0.9314
6.4529 -15.6025 -1.6210 0.9344
6.7074 -14.7134 -1.5524 0.9371
-5.8541 -41.1318 -4.9351 0.8459
-2.3598 -33.5417 -3.9941 0.8733
3.0763 -17.0271 -2.0553 0.9327
5.2012 -15.6417 -1.9580 0.9358
5.5099 -14.7911 -1.8749 0.9384
6.0445 -13.2592 -1.7309 0.9430
6.2768 -12.5647 -1.6684 0.9450
-3.1321 -29.4914 -4.2021 0.8871
-1.9196 -27.2854 -3.8756 0.8954
0.0153 -17.0063 -2.4096 0.9336
0.6206 -17.0103 -2.4118 0.9335
1.8384 -17.0183 -2.4253 0.9332
2.4540 -17.0224 -2.4368 0.9329
3.9877 -15.6247 -2.2848 0.9369
4.3480 -14.8160 -2.1878 0.9395
4.6757 -14.0611 -2.0996 0.9419
4.9745 -13.3538 -2.0191 0.9441
5.2477 -12.6885 -1.9455 0.9460
-16.3896 -44.2408 -7.7722 0.8259
-13.1378 -39.7487 -6.8966 0.8439
-10.5168 -36.0779 -6.1908 0.8587
-3.7324 -26.2247 -4.3638 0.8982
-1.6162 -22.9730 -3.7939 0.9109
0.0153 -17.0057 -2.8015 0.9334
0.6206 -17.0096 -2.8040 0.9333
1.2278 -17.0136 -2.8101 0.9332
1.8383 -17.0176 -2.8198 0.9330
2.3589 -16.3627 -2.7234 0.9352
3.2175 -14.7823 -2.4922 0.9405
3.5904 -14.0679 -2.3918 0.9428
3.9314 -13.3964 -2.3000 0.9450
4.2440 -12.7632 -2.2158 0.9469
4.8327 -11.6850 -2.0831 0.9500
5.5124 -11.0346 -2.0320 0.9512
-12.3583 -33.3592 -6.6867 0.8652
-8.3481 -28.6373 -5.6067 0.8857
-6.7689 -26.7227 -5.1815 0.8939
-5.4009 -25.0308 -4.8131 0.9010
-2.2236 -20.9369 -3.9575 0.9179
-1.3942 -19.8175 -3.7341 0.9223
-0.6517 -18.7914 -3.5342 0.9263
0.0152 -16.9232 -3.1809 0.9334
0.6192 -16.9706 -3.1919 0.9332
2.5321 -14.0145 -2.6768 0.9437
3.2628 -12.7846 -2.4800 0.9477
3.5853 -12.2171 -2.3932 0.9495
5.0972 -10.2035 -2.1439 0.9546
-22.8523 -38.7683 -9.5126 0.8319
-19.3031 -35.5820 -8.5568 0.8475
-16.3507 -32.8782 -7.7618 0.8606
-9.9021 -26.7290 -6.0252 0.8900
-6.9107 -23.7065 -5.2197 0.9040
-5.6775 -22.4144 -4.8876 0.9098
-3.6053 -20.1625 -4.3296 0.9197
-2.7287 -19.1723 -4.0935 0.9239
-1.2246 -17.4063 -3.6884 0.9311
0.0143 -15.8711 -3.3548 0.9372
0.5536 -15.1739 -3.2096 0.9398
1.0476 -14.5169 -3.0766 0.9422
1.9185 -13.3076 -2.8420 0.9465
2.3033 -12.7485 -2.7384 0.9484
3.0395 -11.9097 -2.5982 0.9510
3.4419 -11.7283 -2.5837 0.9513
3.7441 -11.2598 -2.5082 0.9526
4.0197 -10.7907 -2.4340 0.9540
4.2760 -10.3391 -2.3650 0.9553
-11.2125 -24.7136 -6.3781 0.8945
-7.0029 -21.1875 -5.2445 0.9124
-4.8828 -19.2768 -4.6736 0.9215
-3.9747 -18.4212 -4.4290 0.9255
-1.7170 -16.1672 -3.8210 0.9354
-1.0906 -15.5021 -3.6524 0.9381
-0.5158 -14.8729 -3.4976 0.9407
1.3667 -12.6513 -2.9906 0.9491
2.8831 -11.2968 -2.7401 0.9532
3.4675 -10.4279 -2.5827 0.9558
3.7308 -10.0153 -2.5118 0.9570
4.2070 -9.2284 -2.3836 0.9592
4.4222 -8.8522 -2.3256 0.9602
-13.9602 -23.6831 -7.1180 0.8926
-10.7590 -21.6344 -6.2560 0.9050
-8.1691 -19.8533 -5.5585 0.9151
-6.0435 -18.2847 -4.9861 0.9235
-5.1209 -17.5668 -4.7377 0.9272
-1.5390 -14.4911 -3.7731 0.9416
-0.4664 -13.4490 -3.4843 0.9459
0.0117 -12.9598 -3.3555 0.9479
0.4557 -12.4897 -3.2360 0.9497
0.8881 -12.3063 -3.1946 0.9503
1.3097 -12.1239 -3.1573 0.9509
1.6873 -11.7039 -3.0617 0.9523
2.0379 -11.2794 -2.9677 0.9537
2.3653 -10.8671 -2.8795 0.9551
3.4782 -9.3372 -2.5798 0.9597
3.9357 -8.6334 -2.4566 0.9616
4.1436 -8.2945 -2.4007 0.9624
-10.3539 -19.0857 -6.1469 0.9137
-5.3078 -16.0588 -4.7880 0.9321
-3.8010 -15.0060 -4.3822 0.9377
-2.5083 -14.0278 -4.0341 0.9425
-0.8966 -12.7442 -3.6167 0.9483
-0.4375 -12.6136 -3.5730 0.9489
0.4376 -11.9939 -3.3977 0.9513
0.8368 -11.5956 -3.2912 0.9528
1.5606 -10.8253 -3.0962 0.9556
1.8890 -10.4555 -3.0078 0.9568
2.7589 -9.4010 -2.7736 0.9601
3.2553 -8.7386 -2.6399 0.9620
3.4816 -8.4183 -2.5789 0.9628
3.8953 -7.7975 -2.4675 0.9644
-9.9837 -16.9371 -6.0472 0.9210
-7.0685 -15.5799 -5.2622 0.9309
-6.2310 -15.1433 -5.0366 0.9338
-5.4514 -14.7152 -4.8267 0.9364
-4.7252 -14.2960 -4.6311 0.9389
-3.4244 -13.5193 -4.2896 0.9433
-2.8762 -13.3298 -4.1943 0.9445
-1.8344 -12.8892 -4.0044 0.9470
-0.8549 -12.1513 -3.7467 0.9503
0.0103 -11.4238 -3.5137 0.9533
1.7589 -9.7353 -3.0428 0.9594
2.5827 -8.8005 -2.8210 0.9623
-9.1265 -15.4829 -5.9742 0.9270
-8.2167 -15.1462 -5.7278 0.9299
-7.3633 -14.8062 -5.4967 0.9327
-6.5640 -14.4678 -5.2810 0.9352
-5.8143 -14.1307 -5.0792 0.9376
-4.4504 -13.4648 -4.7139 0.9420
-3.2426 -12.8016 -4.3897 0.9459
-2.6911 -12.4721 -4.2412 0.9476
-1.6827 -11.8230 -3.9696 0.9509
-0.3773 -10.8780 -3.6181 0.9552
0.3747 -10.2686 -3.4156 0.9576
0.7195 -9.9702 -3.3227 0.9587
1.9192 -8.8177 -2.9997 0.9627
2.4256 -8.2654 -2.8633 0.9643
2.6585 -7.9948 -2.8006 0.9651
3.0872 -7.4647 -2.6851 0.9665
3.2845 -7.2048 -2.6320 0.9672
-8.0851 -13.7162 -5.6937 0.9346
-5.8978 -12.9993 -5.1047 0.9412
-4.0409 -12.2259 -4.6047 0.9468
-3.4868 -11.9612 -4.4555 0.9484
-2.9623 -11.6948 -4.3142 0.9500
-1.9954 -11.1590 -4.0538 0.9530
-1.5500 -10.8909 -3.9339 0.9543
-0.3500 -10.0909 -3.6107 0.9580
0.0089 -9.8267 -3.5141 0.9591
0.6714 -9.3036 -3.3357 0.9611
1.2670 -8.7885 -3.1753 0.9630
1.5419 -8.5341 -3.1013 0.9638
1.8026 -8.2821 -3.0311 0.9646
2.7181 -7.2967 -2.7845 0.9675
3.2880 -6.5818 -2.6311 0.9692
-7.2450 -12.2910 -5.4675 0.9407
-6.5807 -12.1305 -5.2886 0.9426
-5.9469 -11.9580 -5.1179 0.9444
-4.7662 -11.5832 -4.8000 0.9478
-3.1967 -10.9662 -4.3774 0.9522
-2.7230 -10.7502 -4.2498 0.9536
-2.2722 -10.5306 -4.1284 0.9549
-0.3260 -9.3996 -3.6043 0.9605
0.6287 -8.7118 -3.3472 0.9633
0.9164 -8.4829 -3.2697 0.9641
2.1571 -7.3504 -2.9356 0.9677
2.3699 -7.1271 -2.8783 0.9683
2.5723 -6.9052 -2.8238 0.9689
3.1208 -6.2471 -2.6761 0.9705
-4.3614 -10.5995 -4.6910 0.9517
-3.8692 -10.4442 -4.5584 0.9530
-3.3980 -10.2808 -4.4316 0.9543
-2.1042 -9.7521 -4.0831 0.9578
-1.7105 -9.5658 -3.9771 0.9589
-1.3344 -9.3755 -3.8758 0.9599
-0.9751 -9.1820 -3.7791 0.9609
-0.6322 -8.9858 -3.6867 0.9618
0.0077 -8.5869 -3.5144 0.9636
0.3059 -8.3851 -3.4341 0.9644
1.8274 -7.1601 -3.0244 0.9686
2.0413 -6.9556 -2.9668 0.9692
2.2450 -6.7514 -2.9119 0.9697
2.4391 -6.5476 -2.8597 0.9703
2.7999 -6.1417 -2.7625 0.9712
-5.9708 -10.1293 -5.1244 0.9500
-4.9567 -9.9670 -4.8513 0.9526
-4.4765 -9.8668 -4.7220 0.9538
-4.0141 -9.7555 -4.5975 0.9550
-3.1413 -9.5041 -4.3624 0.9573
-2.7303 -9.3660 -4.2517 0.9583
-2.3356 -9.2207 -4.1455 0.9593
-1.9569 -9.0692 -4.0435 0.9603
-1.5936 -8.9121 -3.9456 0.9613
-1.2454 -8.7501 -3.8519 0.9622
-0.9116 -8.5838 -3.7620 0.9630
-0.5919 -8.4137 -3.6759 0.9639
-0.2858 -8.2404 -3.5935 0.9647
0.0073 -8.0642 -3.5145 0.9654
0.2877 -7.8857 -3.4390 0.9662
0.8127 -7.5229 -3.2977 0.9675
1.0580 -7.3391 -3.2316 0.9682
1.5167 -6.9684 -3.1081 0.9694
2.8256 -5.6563 -2.7556 0.9728
-5.4752 -9.2886 -4.9909 0.9536
-5.0133 -9.2412 -4.8665 0.9547
-4.5655 -9.1804 -4.7459 0.9558
-3.7126 -9.0229 -4.5163 0.9579
-3.3076 -8.9282 -4.4072 0.9589
-1.8264 -8.4647 -4.0083 0.9626
-0.5558 -7.9008 -3.6662 0.9657
-0.2687 -7.7486 -3.5889 0.9664
0.0068 -7.5929 -3.5147 0.9671
0.2712 -7.4342 -3.4435 0.9677
0.5248 -7.2727 -3.3752 0.9684
0.7679 -7.1088 -3.3097 0.9690
1.2241 -6.7751 -3.1869 0.9701
1.6424 -6.4352 -3.0742 0.9712
2.2043 -5.9173 -2.9229 0.9726
2.3753 -5.7433 -2.8769 0.9730
2.6945 -5.3938 -2.7909 0.9738
-5.0475 -8.5630 -4.8757 0.9567
-4.6307 -8.5359 -4.7635 0.9577
-4.2250 -8.4958 -4.6543 0.9586
-3.8308 -8.4436 -4.5481 0.9595
-3.0773 -8.3066 -4.3452 0.9613
-2.7180 -8.2235 -4.2484 0.9621
-2.3705 -8.1318 -4.1548 0.9630
-1.3969 -7.8118 -3.8927 0.9653
-1.0948 -7.6924 -3.8113 0.9660
-0.8037 -7.5675 -3.7329 0.9667
-0.5233 -7.4378 -3.6574 0.9673
-0.2533 -7.3035 -3.5847 0.9680
0.0065 -7.1653 -3.5148 0.9686
0.7271 -6.7306 -3.3207 0.9703
1.1612 -6.4273 -3.2038 0.9713
1.3653 -6.2725 -3.1488 0.9718
2.1001 -5.6375 -2.9510 0.9736
2.4221 -5.3131 -2.8642 0.9743
2.5726 -5.1497 -2.8237 0.9747
-3.9257 -7.8939 -4.5737 0.9611
-3.2142 -7.8114 -4.3820 0.9627
-2.5412 -7.6884 -4.2008 0.9642
-1.3131 -7.3436 -3.8701 0.9669
-0.7574 -7.1314 -3.7204 0.9682
-0.4937 -7.0173 -3.6494 0.9688
0.0061 -6.7753 -3.5149 0.9699
0.2426 -6.6481 -3.4512 0.9705
0.9005 -6.2464 -3.2740 0.9720
1.1033 -6.1068 -3.2194 0.9724
1.2983 -5.9648 -3.1669 0.9729
1.4856 -5.8207 -3.1165 0.9733
1.8378 -5.5269 -3.0216 0.9741
2.3136 -5.0750 -2.8935 0.9752
2.4589 -4.9221 -2.8543 0.9755
-4.3452 -7.3715 -4.6866 0.9617
-3.9992 -7.3718 -4.5934 0.9625
-3.6603 -7.3602 -4.5022 0.9632
-3.3289 -7.3374 -4.4129 0.9639
-2.6898 -7.2607 -4.2408 0.9653
-2.3825 -7.2083 -4.1581 0.9660
-1.5108 -7.0021 -3.9234 0.9679
-1.2372 -6.9190 -3.8497 0.9685
-0.9720 -6.8295 -3.7782 0.9690
-0.4667 -6.6335 -3.6422 0.9701
-0.2264 -6.5278 -3.5775 0.9707
0.4463 -6.1849 -3.3963 0.9721
1.0498 -5.8102 -3.2338 0.9734
1.2362 -5.6796 -3.1836 0.9738
1.4156 -5.5466 -3.1353 0.9742
2.0656 -4.9946 -2.9602 0.9757
-4.0528 -6.8755 -4.6079 0.9638
-3.7351 -6.8850 -4.5223 0.9645
-3.4231 -6.8832 -4.4383 0.9651
-3.1172 -6.8706 -4.3559 0.9658
-2.2392 -6.7747 -4.1195 0.9676
-1.9605 -6.7252 -4.0444 0.9682
-1.6890 -6.6680 -3.9713 0.9687
-0.6766 -6.3705 -3.6987 0.9708
-0.4419 -6.2813 -3.6355 0.9713
0.8149 -5.6523 -3.2971 0.9740
1.1785 -5.4143 -3.1991 0.9747
1.3504 -5.2913 -3.1528 0.9751
1.5160 -5.1658 -3.1083 0.9754
1.8285 -4.9084 -3.0241 0.9761
1.9756 -4.7769 -2.9845 0.9764
