ply
format ascii 1.0
element vertex 285
property float32 x
property float32 y
property float32 z
property float32 I
end_header
21.8929 34.7132 7.2365 0.8465
20.2006 34.7001 7.0798 0.8495
14.8053 30.1687 5.9256 0.8724
7.7662 31.2855 5.6839 0.8773
5.8953 33.8658 6.0612 0.8697
24.0905 32.7894 6.2331 0.8482
12.6851 31.2814 5.1711 0.8723
7.0773 33.5606 5.2544 0.8704
10.8528 29.7525 4.1241 0.8801
8.8873 31.0466 4.2053 0.8779
9.7746 13.3040 1.3975 0.9359
18.8315 23.8123 1.8825 0.8854
16.2548 23.8538 1.7900 0.8908
15.2493 26.1948 1.8796 0.8856
15.2404 28.4557 2.0017 0.8787
12.1480 33.3033 2.1982 0.8676
2.0766 15.0771 0.9438 0.9408
10.4694 13.2385 0.6655 0.9347
16.3201 23.9496 1.1428 0.8905
14.9954 23.7765 1.1084 0.8936
14.7352 25.3118 1.1549 0.8894
14.8212 36.5485 1.5551 0.8540
2.1488 15.6018 0.6210 0.9389
10.0107 14.6906 0.3003 0.9314
9.9643 17.1164 0.3346 0.9238
10.0057 18.6820 0.3580 0.9187
9.8585 20.0884 0.3780 0.9144
9.8094 21.9223 0.4057 0.9084
9.8944 27.1251 0.4877 0.8909
9.9111 30.4900 0.5416 0.8796
9.9323 34.6967 0.6096 0.8656
10.2768 41.3990 0.7205 0.8431
9.8640 13.4258 -0.0938 0.9355
10.0762 14.7867 -0.1007 0.9309
10.0897 15.9980 -0.1065 0.9271
10.1201 18.8955 -0.1207 0.9178
10.1815 20.7468 -0.1301 0.9117
10.2719 31.5998 -0.1871 0.8755
10.3243 36.0661 -0.2112 0.8607
10.2903 15.1009 -0.5145 0.9295
10.2131 16.1938 -0.5391 0.9262
10.0677 17.2941 -0.5635 0.9230
10.4508 19.5130 -0.6233 0.9152
10.3172 21.0232 -0.6594 0.9105
10.1644 22.7156 -0.7007 0.9052
9.9883 24.6309 -0.7484 0.8991
9.7838 26.8219 -0.8039 0.8920
9.2564 32.3358 -0.9471 0.8741
8.9094 35.8905 -1.0413 0.8625
2.6049 25.6054 -0.7247 0.9021
9.5675 12.0981 -0.7822 0.9401
9.4625 12.8793 -0.8105 0.9380
9.2998 14.7451 -0.8840 0.9326
9.0750 16.9442 -0.9748 0.9259
8.7405 19.5334 -1.0853 0.9179
8.5078 20.9800 -1.1481 0.9133
8.2425 22.5965 -1.2198 0.9082
7.9378 24.4195 -1.3022 0.9023
7.5850 26.4971 -1.3978 0.8955
6.6821 31.6866 -1.6423 0.8784
6.0932 35.0021 -1.8018 0.8674
5.3726 39.0081 -1.9969 0.8541
4.4821 44.0592 -2.2460 0.8375
2.7110 41.0786 -2.0878 0.8480
8.6676 10.9602 -1.0246 0.9455
8.5434 11.6284 -1.0580 0.9438
8.4072 12.3375 -1.0947 0.9419
8.2575 13.0930 -1.1350 0.9398
7.8130 15.9203 -1.3003 0.9313
7.4075 18.2667 -1.4453 0.9240
5.9993 24.1671 -1.8258 0.9050
5.5104 26.1302 -1.9581 0.8984
4.9406 28.3810 -2.1123 0.8909
2.9311 28.8117 -2.1234 0.8903
2.4921 37.7614 -2.7748 0.8592
7.9202 10.0150 -1.2258 0.9500
7.7848 10.5958 -1.2623 0.9485
7.6372 11.2075 -1.3020 0.9470
7.2996 12.5391 -1.3929 0.9434
7.1063 13.2683 -1.4450 0.9413
6.9199 14.1006 -1.5080 0.9388
6.7342 15.0498 -1.5829 0.9359
6.2258 17.0682 -1.7443 0.9296
5.9347 18.2573 -1.8431 0.9258
5.5676 19.4496 -1.9423 0.9219
4.6863 22.2222 -2.1804 0.9128
2.7160 15.6019 -1.5204 0.9383
2.8120 20.4166 -1.9786 0.9205
2.8282 27.8000 -2.6827 0.8938
1.9948 30.2256 -2.9081 0.8854
7.1474 9.7282 -1.4339 0.9525
6.9938 10.2634 -1.4753 0.9512
5.9963 13.4008 -1.7439 0.9426
5.5175 15.1259 -1.9126 0.9372
5.2137 16.0391 -2.0033 0.9343
4.8800 17.0474 -2.1063 0.9311
4.0746 19.3212 -2.3455 0.9235
6.7482 8.5331 -1.5414 0.9570
6.0965 10.4724 -1.7169 0.9522
5.8987 11.0135 -1.7702 0.9508
5.6840 11.5821 -1.8280 0.9492
5.4506 12.1813 -1.8909 0.9475
5.1965 12.8145 -1.9593 0.9457
4.9190 13.4852 -2.0339 0.9437
4.6397 14.2733 -2.1265 0.9412
4.3344 15.1414 -2.2316 0.9384
3.2037 12.9056 -1.8841 0.9477
2.3709 13.6197 -1.9588 0.9457
2.0634 20.2833 -2.8888 0.9209
6.1342 8.3492 -1.7068 0.9589
5.8098 9.2119 -1.7942 0.9568
5.4328 10.1438 -1.8957 0.9544
5.2216 10.6400 -1.9525 0.9531
4.9933 11.1592 -2.0140 0.9516
4.4781 12.2765 -2.1528 0.9484
3.8713 13.5237 -2.3174 0.9446
3.5421 14.2689 -2.4220 0.9421
2.7260 12.9264 -2.1763 0.9479
2.7728 15.9287 -2.6636 0.9366
1.8102 17.7935 -2.9464 0.9301
1.2433 18.8389 -3.1103 0.9263
5.5692 8.1728 -1.8589 0.9605
5.4029 8.5668 -1.9037 0.9596
4.8262 9.8342 -2.0590 0.9564
3.5270 12.3210 -2.4089 0.9492
3.2004 12.8925 -2.4968 0.9474
2.4713 14.1961 -2.7084 0.9430
2.0609 14.9635 -2.8391 0.9404
1.6046 15.7707 -2.9795 0.9375
1.0924 16.5530 -3.1181 0.9347
5.4037 7.3550 -1.9292 0.9634
5.0465 8.0017 -1.9997 0.9621
4.2686 9.5397 -2.2092 0.9582
4.0379 9.9574 -2.2713 0.9570
3.5241 10.8413 -2.4097 0.9545
2.9291 11.7995 -2.5699 0.9515
2.5962 12.3110 -2.6595 0.9499
1.8480 13.4172 -2.8629 0.9461
0.9740 14.7583 -3.1264 0.9413
4.9885 7.3206 -2.0820 0.9643
4.7314 7.5021 -2.0845 0.9642
4.3785 8.1752 -2.1796 0.9626
4.1839 8.5255 -2.2320 0.9617
3.5165 9.6403 -2.4117 0.9587
3.2623 10.0359 -2.4802 0.9576
2.6982 10.8693 -2.6321 0.9550
1.6862 12.2431 -2.9046 0.9505
4.9767 6.7737 -2.1763 0.9659
4.5960 7.2873 -2.2307 0.9650
4.2844 7.3596 -2.2049 0.9654
3.7186 8.3104 -2.3573 0.9631
3.5049 8.6430 -2.4148 0.9622
3.2772 8.9844 -2.4761 0.9613
2.7755 9.6958 -2.6112 0.9592
2.2037 10.4501 -2.7652 0.9568
1.8879 10.8453 -2.8503 0.9555
1.1879 11.6762 -3.0388 0.9527
4.8458 6.1275 -2.2116 0.9680
4.5550 6.6844 -2.2899 0.9669
3.6833 7.5054 -2.3668 0.9658
3.2844 8.0993 -2.4742 0.9643
3.0662 8.4057 -2.5330 0.9635
2.5877 9.0396 -2.6618 0.9617
2.3254 9.3678 -2.7324 0.9607
2.0464 9.7041 -2.8076 0.9596
1.7493 10.0490 -2.8876 0.9585
1.0953 10.7667 -3.0637 0.9560
0.7353 11.1406 -3.1607 0.9546
4.4582 6.0679 -2.3160 0.9690
4.3121 6.3280 -2.3553 0.9685
4.1572 6.5917 -2.3970 0.9679
3.9915 6.8565 -2.4402 0.9673
3.8123 7.1181 -2.4836 0.9668
3.5361 7.2055 -2.4688 0.9670
3.0877 7.6141 -2.5272 0.9662
2.8784 7.8910 -2.5835 0.9655
2.1726 8.7519 -2.7736 0.9630
1.6283 9.3535 -2.9202 0.9610
1.3309 9.6632 -3.0003 0.9600
1.0152 9.9793 -3.0853 0.9589
4.2331 5.7617 -2.3766 0.9703
4.0909 6.0034 -2.4148 0.9698
3.7812 6.4953 -2.4983 0.9688
3.6128 6.7455 -2.5436 0.9683
3.4303 6.9898 -2.5882 0.9677
2.4980 7.6846 -2.6860 0.9665
2.2738 7.9430 -2.7464 0.9658
2.0368 8.2050 -2.8102 0.9650
1.2414 9.0133 -3.0244 0.9624
0.6317 9.5716 -3.1886 0.9604
4.0268 5.4808 -2.4321 0.9715
3.7423 5.9338 -2.5087 0.9706
3.2530 6.6286 -2.6405 0.9691
3.0691 6.8588 -2.6871 0.9686
2.5942 7.1118 -2.7072 0.9684
2.3552 7.2453 -2.7244 0.9682
1.9153 7.7156 -2.8429 0.9668
1.6774 7.9540 -2.9070 0.9661
1.4265 8.1946 -2.9745 0.9653
1.1621 8.4373 -3.0457 0.9645
0.5893 8.9289 -3.2000 0.9627
3.9641 5.0126 -2.4490 0.9730
3.8368 5.2221 -2.4833 0.9726
3.7023 5.4331 -2.5195 0.9722
3.4108 5.8590 -2.5980 0.9714
3.0870 6.2903 -2.6852 0.9704
2.9121 6.5081 -2.7323 0.9699
2.7270 6.7247 -2.7809 0.9694
2.5304 6.9370 -2.8297 0.9689
2.2967 7.0653 -2.8470 0.9687
2.0215 7.0618 -2.8149 0.9690
1.8058 7.2746 -2.8724 0.9684
1.5795 7.4897 -2.9333 0.9677
1.3414 7.7058 -2.9974 0.9670
1.0912 7.9228 -3.0648 0.9663
0.8282 8.1404 -3.1357 0.9656
0.5516 8.3586 -3.2101 0.9648
3.7849 4.7859 -2.4973 0.9740
3.3926 5.3793 -2.6029 0.9729
2.9346 5.9798 -2.7262 0.9716
2.5887 6.3838 -2.8194 0.9707
2.2051 6.7836 -2.9194 0.9696
1.9980 6.9796 -2.9713 0.9691
1.7402 7.0100 -2.9561 0.9693
1.4909 7.0699 -2.9572 0.9693
1.0275 7.4599 -3.0820 0.9680
0.7787 7.6545 -3.1490 0.9673
3.6182 4.5752 -2.5421 0.9749
3.2372 5.1329 -2.6447 0.9739
2.7942 5.6936 -2.7641 0.9727
0.9698 7.0409 -3.0975 0.9695
0.7341 7.2158 -3.1610 0.9688
3.4628 4.3786 -2.5840 0.9757
3.0928 4.9038 -2.6836 0.9748
2.8139 5.2538 -2.7587 0.9741
2.5071 5.6030 -2.8414 0.9733
2.1706 5.9506 -2.9320 0.9725
1.9905 6.1235 -2.9805 0.9720
1.3986 6.6320 -3.1374 0.9706
1.1827 6.7941 -3.1922 0.9701
0.9487 6.8885 -3.2187 0.9698
0.4602 6.9730 -3.2347 0.9697
3.2033 4.3600 -2.6539 0.9762
3.0836 4.5252 -2.6861 0.9759
2.9580 4.6901 -2.7199 0.9756
2.8261 4.8547 -2.7554 0.9753
2.5432 5.1823 -2.8316 0.9746
2.3917 5.3451 -2.8724 0.9742
2.0677 5.6684 -2.9597 0.9735
1.7140 5.9874 -3.0549 0.9726
1.3287 6.3008 -3.1587 0.9717
1.1237 6.4548 -3.2139 0.9712
0.6862 6.7448 -3.3256 0.9702
3.1805 4.0218 -2.6600 0.9772
3.0699 4.1784 -2.6898 0.9769
2.7041 4.6450 -2.7883 0.9761
2.2842 5.1049 -2.9014 0.9751
1.8057 5.5550 -3.0302 0.9740
1.4516 5.8474 -3.1256 0.9732
1.2634 5.9908 -3.1763 0.9728
1.0675 6.1321 -3.2290 0.9723
0.6517 6.4063 -3.3406 0.9714
0.4312 6.5343 -3.3972 0.9709
3.0518 3.8590 -2.6947 0.9778
2.7133 4.3022 -2.7858 0.9771
2.3250 4.7376 -2.8904 0.9762
2.0365 5.0219 -2.9681 0.9756
1.8829 5.1620 -3.0094 0.9753
1.5563 5.4368 -3.0974 0.9745
1.3830 5.5713 -3.1441 0.9742
1.0155 5.8334 -3.2430 0.9734
0.6190 6.0847 -3.3498 0.9725
2.8258 3.8462 -2.7555 0.9782
2.7164 3.9862 -2.7850 0.9780
2.6018 4.1253 -2.8159 0.9777
2.4819 4.2633 -2.8481 0.9775
2.3567 4.4002 -2.8819 0.9772
1.9475 4.8025 -2.9921 0.9763
1.7996 4.9334 -3.0319 0.9760
1.6456 5.0625 -3.0733 0.9757
1.4855 5.1894 -3.1165 0.9754
1.1464 5.4365 -3.2078 0.9747
0.9672 5.5561 -3.2560 0.9743
0.7813 5.6728 -3.3061 0.9739
0.5887 5.7863 -3.3580 0.9735
