ply
format ascii 1.0
element vertex 301
property float32 x
property float32 y
property float32 z
property float32 I
end_header
41.2521 -15.1708 7.7501 0.8365
41.0107 -11.8540 7.5273 0.8408
39.5157 -8.4368 7.1247 0.8486
38.8195 -26.6156 7.2105 0.8266
37.9132 -22.2131 6.7316 0.8371
35.7318 -17.6567 6.1058 0.8510
33.8776 -13.8433 5.6064 0.8623
33.1540 -12.1927 5.4116 0.8668
31.5815 -7.9250 4.9881 0.8765
24.8571 -22.8373 4.3956 0.8727
31.5658 -21.6423 4.9839 0.8569
30.5624 -19.3960 4.7137 0.8641
28.3500 -14.0090 4.1179 0.8802
27.3407 -11.1722 3.8461 0.8877
26.2936 -7.6000 3.5641 0.8955
25.8309 -5.5150 3.4395 0.8989
24.7642 -21.1806 3.4992 0.8771
25.0019 -19.8911 3.4308 0.8794
24.5484 -18.1452 3.2780 0.8844
23.8735 -12.8712 2.9124 0.8966
22.9402 -9.3740 2.6611 0.9051
22.7050 -8.3499 2.5977 0.9073
22.3251 -6.4530 2.4954 0.9107
16.0870 -17.0382 1.9836 0.9102
19.1965 -18.9369 2.2827 0.8974
21.7622 -19.9939 2.5017 0.8881
21.2711 -18.1930 2.3694 0.8937
20.4769 -15.1357 2.1556 0.9028
19.8703 -12.6104 1.9922 0.9099
20.3126 -10.9514 1.9535 0.9115
19.5142 -6.3996 1.7385 0.9209
19.2442 -4.1087 1.6658 0.9240
18.0085 -17.7649 1.5686 0.9036
18.1469 -16.6723 1.5281 0.9060
17.8945 -15.3050 1.4602 0.9099
17.6726 -14.0601 1.4004 0.9135
17.8122 -10.4361 1.2802 0.9206
17.6849 -9.5346 1.2459 0.9226
17.5717 -8.6830 1.2154 0.9245
17.4713 -7.8743 1.1884 0.9261
17.3823 -7.1029 1.1644 0.9275
17.2351 -5.6521 1.1248 0.9299
17.0801 -3.6467 1.0830 0.9324
17.0439 -3.0105 1.0733 0.9330
15.7019 -15.4895 0.8697 0.9155
15.4490 -13.2134 0.8016 0.9218
15.3432 -12.2068 0.7731 0.9245
15.7981 -10.0261 0.7378 0.9278
15.7274 -9.2146 0.7188 0.9296
15.6075 -7.7124 0.6865 0.9327
15.5570 -7.0116 0.6729 0.9340
15.5121 -6.3386 0.6608 0.9351
15.4723 -5.6900 0.6500 0.9361
15.4372 -5.0626 0.6406 0.9370
15.4066 -4.4532 0.6324 0.9378
15.3578 -3.2790 0.6192 0.9391
15.3392 -2.7094 0.6142 0.9395
13.7265 -14.5381 0.3377 0.9231
13.6336 -12.5258 0.3127 0.9286
13.5944 -11.6272 0.3022 0.9309
14.1333 -9.6901 0.2895 0.9337
14.1064 -8.9524 0.2822 0.9353
14.0437 -8.2281 0.2749 0.9370
14.0604 -7.5805 0.2698 0.9381
14.0408 -6.9382 0.2646 0.9393
14.0232 -6.3203 0.2598 0.9403
13.9936 -5.1463 0.2519 0.9421
13.9613 -3.5034 0.2431 0.9440
13.9533 -2.9791 0.2410 0.9445
13.9467 -2.4635 0.2392 0.9449
12.7087 -10.8697 -0.0941 0.9353
12.7355 -8.7318 -0.0869 0.9401
12.7656 -5.7535 -0.0788 0.9455
12.7700 -5.2182 -0.0777 0.9463
12.7772 -4.1902 -0.0757 0.9476
12.7802 -3.6941 -0.0749 0.9482
12.7828 -3.2077 -0.0742 0.9486
12.7850 -2.7297 -0.0736 0.9491
11.3746 -11.2208 -0.4499 0.9381
11.4347 -10.5056 -0.4372 0.9398
11.5192 -9.1645 -0.4145 0.9428
11.6719 -6.2928 -0.3734 0.9483
11.7148 -5.2798 -0.3618 0.9499
11.7331 -4.7945 -0.3569 0.9505
11.7494 -4.3209 -0.3525 0.9511
11.7638 -3.8579 -0.3486 0.9517
11.7970 -2.5187 -0.3397 0.9529
10.2473 -10.8532 -0.7570 0.9420
10.4650 -8.9507 -0.6984 0.9463
10.5254 -8.3738 -0.6821 0.9476
10.5805 -7.8207 -0.6673 0.9487
10.6769 -6.7759 -0.6413 0.9506
10.7188 -6.2801 -0.6300 0.9515
10.7569 -5.7995 -0.6198 0.9522
10.7915 -5.3326 -0.6104 0.9529
10.8509 -4.4340 -0.5945 0.9541
10.9181 -3.1558 -0.5764 0.9555
10.9351 -2.7441 -0.5718 0.9558
10.9498 -2.3378 -0.5678 0.9561
5.2606 -0.9292 -0.2709 0.9788
9.3501 -9.9029 -0.9986 0.9468
9.5334 -8.7587 -0.9492 0.9494
9.6139 -8.2227 -0.9276 0.9505
9.6877 -7.7074 -0.9077 0.9516
9.9733 -5.3770 -0.8308 0.9556
10.0164 -4.9495 -0.8192 0.9562
10.0553 -4.5320 -0.8087 0.9567
10.0904 -4.1232 -0.7992 0.9572
10.1219 -3.7224 -0.7908 0.9577
10.1499 -3.3286 -0.7832 0.9581
10.1961 -2.5586 -0.7708 0.9587
5.0035 -1.0683 -0.3751 0.9797
8.7010 -8.5834 -1.1734 0.9521
8.8886 -7.6023 -1.1229 0.9541
9.0474 -6.6875 -1.0801 0.9558
9.1173 -6.2511 -1.0613 0.9566
9.2403 -5.4139 -1.0282 0.9579
9.2941 -5.0108 -1.0137 0.9585
9.3430 -4.6168 -1.0005 0.9590
9.4636 -3.4803 -0.9680 0.9603
4.7884 -0.8458 -0.4668 0.9807
7.9502 -8.4203 -1.3756 0.9544
8.1666 -7.5029 -1.3173 0.9563
8.4328 -6.2332 -1.2456 0.9586
8.7521 -4.3248 -1.1596 0.9614
8.8833 -3.2669 -1.1243 0.9626
8.9492 -2.5867 -1.1066 0.9632
8.9762 -2.2525 -1.0993 0.9634
4.5788 -0.9776 -0.5562 0.9813
7.3926 -7.8297 -1.5257 0.9574
7.5088 -7.4072 -1.4945 0.9583
7.6164 -6.9975 -1.4655 0.9591
7.7161 -6.5995 -1.4386 0.9598
8.1729 -4.4064 -1.3156 0.9632
8.3260 -3.4022 -1.2744 0.9643
8.4659 -2.1244 -1.2367 0.9654
4.5459 -0.8030 -0.6541 0.9815
7.0232 -6.9282 -1.6252 0.9608
7.1328 -6.5532 -1.5957 0.9615
7.4974 -5.1404 -1.4975 0.9638
7.5721 -4.8055 -1.4774 0.9643
7.6409 -4.4767 -1.4589 0.9647
7.7041 -4.1536 -1.4419 0.9651
7.7619 -3.8355 -1.4263 0.9655
7.8146 -3.5221 -1.4121 0.9658
7.9055 -2.9073 -1.3876 0.9664
4.5774 -0.9773 -0.7711 0.9812
4.5759 -0.8083 -0.7655 0.9813
6.5937 -6.5045 -1.7409 0.9630
6.7040 -6.1593 -1.7112 0.9636
6.8067 -5.8217 -1.6835 0.9642
6.9907 -5.1673 -1.6340 0.9652
7.0728 -4.8493 -1.6119 0.9657
7.1487 -4.5368 -1.5914 0.9661
7.2187 -4.2294 -1.5726 0.9665
7.2831 -3.9266 -1.5552 0.9669
7.5283 -2.4689 -1.4892 0.9683
7.5633 -2.1861 -1.4798 0.9685
7.5937 -1.9056 -1.4716 0.9686
4.6082 -0.9839 -0.8857 0.9810
6.0924 -6.4527 -1.8759 0.9644
6.5192 -5.1866 -1.7609 0.9665
6.9028 -3.7215 -1.6576 0.9684
7.0169 -3.1625 -1.6269 0.9690
7.1111 -2.6151 -1.6016 0.9695
7.1510 -2.3451 -1.5908 0.9697
7.1864 -2.0772 -1.5813 0.9699
7.2174 -1.8111 -1.5729 0.9700
4.6378 -0.8192 -0.9955 0.9809
5.7494 -6.0893 -1.9682 0.9662
5.9759 -5.4903 -1.9072 0.9672
6.3446 -4.3500 -1.8079 0.9689
6.4918 -3.8035 -1.7683 0.9696
6.5570 -3.5352 -1.7508 0.9699
6.7214 -2.7466 -1.7065 0.9706
4.6721 -0.9975 -1.1228 0.9806
4.6699 -0.8249 -1.1145 0.9807
5.4398 -5.7615 -2.0516 0.9678
5.6636 -5.2034 -1.9913 0.9687
6.1056 -3.8748 -1.8723 0.9706
6.1761 -3.6185 -1.8533 0.9709
6.2411 -3.3648 -1.8358 0.9711
6.3009 -3.1136 -1.8197 0.9714
6.4504 -2.3722 -1.7795 0.9720
6.4907 -2.1286 -1.7686 0.9722
6.5577 -1.6456 -1.7506 0.9725
4.7027 -0.8307 -1.2365 0.9805
5.1588 -5.4638 -2.1273 0.9692
5.6597 -4.1834 -1.9924 0.9712
5.7409 -3.9361 -1.9705 0.9715
5.9510 -3.2084 -1.9139 0.9723
6.0105 -2.9700 -1.8979 0.9725
6.1145 -2.4986 -1.8699 0.9729
6.1593 -2.2651 -1.8578 0.9731
6.2352 -1.8023 -1.8374 0.9734
6.2665 -1.5725 -1.8290 0.9735
4.7392 -1.0118 -1.3719 0.9801
4.7364 -0.8366 -1.3616 0.9802
5.0140 -4.9461 -2.1663 0.9710
5.1188 -4.7029 -2.1380 0.9713
5.3092 -4.2239 -2.0868 0.9720
5.3953 -3.9880 -2.0636 0.9723
5.4755 -3.7542 -2.0420 0.9726
5.5502 -3.5224 -2.0219 0.9729
5.6195 -3.2924 -2.0032 0.9731
5.9302 -1.9448 -1.9196 0.9742
4.7710 -0.8427 -1.4902 0.9799
4.6670 -4.9430 -2.2597 0.9718
4.7765 -4.7119 -2.2302 0.9721
4.8794 -4.4829 -2.2025 0.9725
4.9760 -4.2559 -2.1765 0.9728
5.1513 -3.8076 -2.1293 0.9734
5.2304 -3.5861 -2.1080 0.9736
5.4357 -2.9306 -2.0527 0.9743
5.4940 -2.7148 -2.0370 0.9745
5.5474 -2.5002 -2.0226 0.9747
5.5962 -2.2867 -2.0095 0.9748
5.7151 -1.6519 -1.9775 0.9752
5.7724 -1.2325 -1.9620 0.9754
4.4502 -4.7133 -2.3181 0.9728
4.7529 -4.0651 -2.2366 0.9738
4.9252 -3.6405 -2.1902 0.9743
5.0030 -3.4302 -2.1692 0.9746
5.0755 -3.2211 -2.1497 0.9748
5.1429 -3.0132 -2.1316 0.9750
5.3638 -2.1918 -2.0721 0.9757
5.4814 -1.5844 -2.0404 0.9761
5.5382 -1.1824 -2.0251 0.9762
4.2496 -4.5009 -2.3721 0.9738
4.3543 -4.2954 -2.3439 0.9741
4.5459 -3.8880 -2.2923 0.9747
4.7149 -3.4850 -2.2468 0.9752
4.9289 -2.8878 -2.1892 0.9758
5.0471 -2.4940 -2.1574 0.9762
5.1466 -2.1030 -2.1306 0.9765
5.1896 -1.9085 -2.1190 0.9766
5.2283 -1.7146 -2.1086 0.9767
5.3188 -1.1356 -2.0842 0.9770
5.3406 -0.9433 -2.0783 0.9770
4.0632 -4.3034 -2.4223 0.9747
4.1655 -4.1092 -2.3948 0.9750
4.3529 -3.7231 -2.3443 0.9755
4.4384 -3.5311 -2.3213 0.9758
4.5186 -3.3400 -2.2997 0.9760
4.5936 -3.1495 -2.2795 0.9762
4.6636 -2.9597 -2.2606 0.9764
4.7288 -2.7705 -2.2431 0.9766
4.7892 -2.5820 -2.2268 0.9768
4.8962 -2.2067 -2.1980 0.9771
4.9429 -2.0198 -2.1854 0.9772
4.9854 -1.8334 -2.1740 0.9773
5.0235 -1.6474 -2.1637 0.9774
5.0574 -1.4618 -2.1546 0.9775
3.9893 -3.9354 -2.4422 0.9758
4.6003 -2.4802 -2.2777 0.9775
4.6551 -2.3003 -2.2629 0.9776
4.7054 -2.1208 -2.2494 0.9777
4.8934 -1.2279 -2.1987 0.9782
4.9187 -1.0502 -2.1919 0.9783
4.3014 -2.7298 -2.3582 0.9778
4.4224 -2.3843 -2.3256 0.9781
4.4762 -2.2119 -2.3111 0.9782
4.5256 -2.0397 -2.2978 0.9784
4.5709 -1.8678 -2.2856 0.9785
4.7563 -0.8401 -2.2357 0.9789
3.6694 -3.6198 -2.5284 0.9773
3.8442 -3.2879 -2.4813 0.9777
3.9993 -2.9562 -2.4395 0.9781
4.0699 -2.7904 -2.4205 0.9783
4.2543 -2.2937 -2.3708 0.9787
4.4001 -1.7980 -2.3316 0.9790
4.4404 -1.6330 -2.3207 0.9791
4.4767 -1.4681 -2.3110 0.9792
4.5617 -0.9740 -2.2881 0.9794
3.4309 -3.6337 -2.5926 0.9777
3.5235 -3.4758 -2.5677 0.9779
4.0394 -2.3667 -2.4287 0.9791
4.0953 -2.2079 -2.4137 0.9793
4.3451 -1.2559 -2.3464 0.9798
4.3729 -1.0973 -2.3389 0.9799
4.4172 -0.7802 -2.3270 0.9800
3.2954 -3.4903 -2.6291 0.9783
3.5520 -3.0380 -2.5600 0.9789
3.7675 -2.5831 -2.5019 0.9794
3.8307 -2.4311 -2.4849 0.9795
3.8896 -2.2789 -2.4691 0.9797
4.0844 -1.6690 -2.4166 0.9801
4.1232 -1.5163 -2.4062 0.9802
4.1892 -1.2109 -2.3884 0.9803
4.2166 -1.0581 -2.3810 0.9804
4.2401 -0.9053 -2.3747 0.9804
4.2600 -0.7525 -2.3693 0.9805
3.3385 -3.0672 -2.6175 0.9793
3.4918 -2.7780 -2.5762 0.9796
3.6278 -2.4874 -2.5396 0.9799
3.7472 -2.1954 -2.5074 0.9801
3.8504 -1.9027 -2.4796 0.9804
3.9759 -1.4622 -2.4458 0.9806
4.0102 -1.3151 -2.4366 0.9807
4.0675 -1.0207 -2.4212 0.9808
4.0906 -0.8733 -2.4149 0.9809
