ply
format ascii 1.0
element vertex 191
property float32 x
property float32 y
property float32 z
property float32 I
end_header
-16.2150 29.0990 1.3135 0.8752
-17.5204 34.3220 0.6509 0.8571
-19.1268 29.1194 0.5885 0.8699
-20.8987 40.9399 -0.2588 0.8320
-20.7759 34.2870 -0.2257 0.8518
-20.7270 31.5557 -0.2126 0.8598
-20.6899 29.1311 -0.2012 0.8668
-24.6284 37.4954 -1.2632 0.8357
-24.3314 34.2584 -1.1832 0.8452
-24.0760 31.4119 -1.1144 0.8535
-28.8775 37.6765 -2.4074 0.8269
-28.3099 34.2770 -2.2546 0.8369
-27.8240 31.2960 -2.1237 0.8456
-27.9104 29.1820 -2.0479 0.8507
-29.9559 29.1214 -3.0633 0.8457
-31.9667 28.8899 -3.1592 0.8413
-10.0282 14.1196 -2.0572 0.9326
-29.6999 28.8726 -4.9203 0.8463
-39.0609 28.2237 -5.7244 0.8236
-29.7024 28.8751 -5.8694 0.8459
-31.9753 28.8976 -6.1066 0.8402
-37.1392 28.9489 -6.6720 0.8268
-31.9782 28.9003 -7.1007 0.8397
-39.7798 24.5493 -7.7007 0.8274
-9.8028 13.8022 -3.1820 0.9334
-31.9811 28.9029 -8.1023 0.8391
-34.4495 28.9276 -8.4553 0.8327
-37.1466 28.9547 -8.8526 0.8256
-38.2200 27.6161 -8.8630 0.8254
-40.9875 23.2793 -8.8599 0.8254
-21.0029 37.6910 -9.1206 0.8383
-25.0244 41.2984 -10.2072 0.8208
-29.7103 28.8827 -8.7587 0.8442
-31.9841 28.9055 -9.1127 0.8384
-34.4529 28.9304 -9.5097 0.8320
-37.1503 28.9576 -9.9566 0.8248
-37.9435 27.4163 -9.8951 0.8258
-38.0190 25.4180 -9.6671 0.8295
-38.0881 23.5053 -9.4608 0.8328
-18.7927 31.0142 -8.5228 0.8616
-21.8182 33.2170 -9.3402 0.8493
-29.7129 28.8853 -9.7392 0.8434
-31.9870 28.9082 -10.1329 0.8376
-34.4562 28.9332 -10.5743 0.8312
-37.1541 28.9605 -11.0714 0.8240
-37.6683 27.2175 -10.9221 0.8262
-37.8239 23.3423 -10.4460 0.8331
-38.5294 20.0654 -10.2097 0.8365
-35.4320 16.8430 -9.2203 0.8511
-13.1628 23.6215 -7.0015 0.8943
-15.2221 21.4327 -6.8065 0.8971
-25.2528 30.5755 -10.2675 0.8489
-24.8609 27.9633 -9.6879 0.8568
-29.7156 28.8878 -10.7303 0.8426
-37.1578 28.9635 -12.1983 0.8231
-37.3943 27.0195 -11.9450 0.8264
-37.4812 25.0585 -11.6736 0.8300
-39.5364 18.7940 -11.3344 0.8345
-9.7748 19.1488 -6.0863 0.9145
-11.0638 19.8547 -6.4345 0.9098
-11.1279 18.3647 -6.0789 0.9146
-11.7135 15.2826 -5.4510 0.9231
-19.7546 23.9184 -8.7820 0.8790
-22.0964 24.8537 -9.4145 0.8709
-27.6333 26.8635 -10.9101 0.8520
-30.9166 27.9408 -11.7970 0.8409
-34.4630 28.9389 -12.7397 0.8294
-28.0749 21.8835 -10.0770 0.8624
-37.2135 24.8795 -12.6724 0.8302
-37.4455 19.5009 -11.9519 0.8390
-37.5097 17.8307 -11.7574 0.8414
-40.6115 17.5232 -12.5214 0.8320
-8.4072 16.4696 -5.6875 0.9255
-8.8727 15.9227 -5.6066 0.9266
-9.8396 14.9803 -5.5127 0.9277
-11.4492 16.1204 -6.0816 0.9206
-16.1864 19.5981 -7.8181 0.8991
-18.7354 18.2134 -8.0368 0.8964
-23.8532 21.5573 -9.8890 0.8741
-26.2001 22.0004 -10.5229 0.8666
-25.3463 19.7567 -9.8845 0.8742
-30.5576 18.8580 -11.0446 0.8605
-33.2054 18.8594 -11.7456 0.8523
-37.1918 19.3688 -12.8977 0.8390
-37.2596 17.7118 -12.6892 0.8414
-8.1893 14.6963 -5.5924 0.9315
-9.1275 15.0634 -5.8547 0.9284
-11.2070 15.7794 -6.4335 0.9217
-12.3569 16.1220 -6.7521 0.9179
-13.5720 16.4328 -7.0845 0.9141
-16.2210 16.9600 -7.8010 0.9058
-19.1823 17.3360 -8.5945 0.8967
-20.8684 17.5234 -9.0581 0.8915
-26.3857 17.6404 -10.5504 0.8748
-30.5332 17.3417 -11.6722 0.8624
-32.6871 17.0228 -12.2505 0.8561
-6.5056 12.7444 -5.1169 0.9410
-8.0097 13.2187 -5.5272 0.9365
-8.8276 13.4396 -5.7501 0.9340
-9.6919 13.6461 -5.9855 0.9314
-13.6463 14.2680 -7.0604 0.9195
-14.7639 14.3526 -7.3633 0.9162
-18.4220 14.3594 -8.3528 0.9055
-19.7367 14.2609 -8.7076 0.9017
-28.2605 12.1940 -11.0068 0.8774
-5.8557 11.4710 -4.9355 0.9463
-8.5710 12.0679 -5.6724 0.9386
-9.3333 12.1771 -5.8795 0.9364
-10.9594 12.3269 -6.3209 0.9318
-11.8228 12.3614 -6.5550 0.9293
-12.7189 12.3646 -6.7977 0.9268
-13.6462 12.3327 -7.0487 0.9242
-14.6027 12.2620 -7.3073 0.9216
-15.5859 12.1488 -7.5729 0.9188
-16.5922 11.9888 -7.8446 0.9160
-19.7016 11.1897 -8.6828 0.9075
-18.5985 9.6858 -8.0359 0.9141
-21.7839 10.3552 -9.2432 0.9018
-5.3237 10.4290 -4.7923 0.9507
-5.8768 10.5463 -4.9412 0.9492
-7.0530 10.7379 -5.2580 0.9460
-7.6766 10.8086 -5.4259 0.9443
-8.3239 10.8602 -5.6002 0.9426
-9.6899 10.8990 -5.9687 0.9389
-10.4089 10.8831 -6.1635 0.9370
-11.9079 10.7617 -6.5690 0.9330
-12.6839 10.6508 -6.7787 0.9309
-14.2761 10.3153 -7.2085 0.9267
-15.0850 10.0852 -7.4266 0.9246
-15.8969 9.8104 -7.6454 0.9224
-17.6824 8.4055 -8.0130 0.9189
-19.0634 8.2255 -8.4975 0.9142
-5.3649 9.6277 -4.8034 0.9530
-6.4030 9.7482 -5.0829 0.9504
-8.0914 9.7968 -5.5376 0.9461
-8.6870 9.7710 -5.6980 0.9445
-9.2975 9.7211 -5.8624 0.9430
-14.4824 8.2254 -7.2586 0.9299
-15.1234 7.8760 -7.4313 0.9283
-15.7491 7.4865 -7.5998 0.9267
-16.3546 7.0567 -7.7628 0.9252
-16.9344 6.5869 -7.9190 0.9238
-4.4854 8.7867 -4.5665 0.9574
-4.9273 8.8423 -4.6855 0.9564
-5.3832 8.8840 -4.8083 0.9552
-7.3398 8.8868 -5.3352 0.9505
-7.8589 8.8396 -5.4750 0.9492
-11.1294 8.0416 -6.3557 0.9413
-13.2962 6.9244 -6.9392 0.9361
-13.8085 6.5640 -7.0772 0.9348
-14.3016 6.1709 -7.2100 0.9336
-4.5484 8.1624 -4.5835 0.9592
-4.9592 8.1844 -4.6941 0.9583
-5.8125 8.1840 -4.9239 0.9563
-6.7039 8.1169 -5.1640 0.9542
-8.5708 7.7458 -5.6667 0.9498
-9.0473 7.5971 -5.7950 0.9487
-9.5242 7.4238 -5.9235 0.9476
-9.9995 7.2252 -6.0515 0.9465
-11.3919 6.4701 -6.4264 0.9433
-12.2654 5.8305 -6.6616 0.9413
-12.6767 5.4698 -6.7724 0.9403
-13.0671 5.0826 -6.8775 0.9394
-4.5897 7.5746 -4.5946 0.9609
-5.3599 7.5467 -4.8020 0.9591
-5.7560 7.5099 -4.9087 0.9583
-6.9787 7.2967 -5.2380 0.9555
-7.3942 7.1882 -5.3499 0.9546
-8.2294 6.9103 -5.5748 0.9527
-8.6459 6.7392 -5.6869 0.9518
-10.6414 5.5418 -6.2243 0.9474
-11.6884 4.5464 -6.5062 0.9451
-3.9241 7.0421 -4.4154 0.9639
-4.2645 7.0378 -4.5071 0.9632
-5.6850 6.8833 -4.8896 0.9601
-6.4204 6.7129 -5.0876 0.9585
-7.9001 6.1579 -5.4861 0.9553
-8.2639 5.9711 -5.5841 0.9546
-8.6221 5.7643 -5.6805 0.9538
-9.6448 5.0228 -5.9559 0.9516
-3.6634 6.5743 -4.3452 0.9658
-3.9757 6.5612 -4.4293 0.9652
-4.6150 6.4978 -4.6014 0.9639
-4.9408 6.4462 -4.6892 0.9632
-5.6011 6.3000 -4.8670 0.9618
-5.9339 6.2042 -4.9566 0.9611
-6.2672 6.0926 -5.0464 0.9604
-7.2583 5.6576 -5.3133 0.9584
-7.5816 5.4781 -5.4003 0.9577
-8.2089 5.0659 -5.5692 0.9564
-9.2830 4.4128 -5.9343 0.9536
