ply
format ascii 1.0
element vertex 133
property float32 x
property float32 y
property float32 z
property float32 I
end_header
-15.5693 0.0000 0.2630 0.9396
-15.4410 -0.5561 0.2610 0.9401
-37.9412 0.0000 -1.9242 0.8590
-37.4719 0.0000 -3.5975 0.8602
-36.7814 0.0000 -6.0593 0.8615
-28.1411 -5.1212 -4.7121 0.8905
-38.1137 -17.5735 -6.9141 0.8435
-28.7188 -4.1646 -5.4545 0.8886
-27.9886 -5.0934 -5.3472 0.8907
-36.3271 0.0000 -7.6788 0.8620
-28.6094 -4.1488 -6.1107 0.8885
-39.2877 -16.4269 -9.0013 0.8402
-37.8034 -17.4304 -8.7994 0.8435
-39.1152 -16.3548 -9.9642 0.8401
-36.6375 -29.8735 -13.3826 0.8216
-35.4248 0.0000 -10.8959 0.8622
-39.3503 -23.5898 -14.1115 0.8253
-30.1841 -22.8532 -11.6448 0.8535
-27.5643 -22.4754 -10.9393 0.8617
-25.1452 -22.0564 -10.2879 0.8694
-35.1992 0.0000 -11.7004 0.8621
-34.0844 -17.2294 -12.6951 0.8513
-31.8744 -17.5805 -12.1000 0.8578
-29.7331 -17.8244 -11.5233 0.8640
-25.6984 -18.0395 -10.4369 0.8760
-23.8177 -18.0331 -9.9304 0.8817
-20.3416 -17.8428 -8.9943 0.8922
-34.9730 0.0000 -12.5066 0.8619
-38.1296 -1.3734 -13.6443 0.8504
-37.7800 -2.7251 -13.5455 0.8514
-37.2434 -4.0383 -13.3966 0.8529
-36.5216 -5.2962 -13.1970 0.8549
-34.6879 -7.6119 -12.6998 0.8600
-32.3946 -9.5972 -12.0822 0.8663
-31.1707 -11.7337 -11.9105 0.8681
-29.7210 -12.4269 -11.5201 0.8721
-28.2452 -13.0233 -11.1227 0.8762
-25.2796 -13.9431 -10.3241 0.8846
-23.8161 -14.2773 -9.9300 0.8887
-22.3796 -14.5361 -9.5431 0.8928
-20.9780 -14.7258 -9.1657 0.8968
-18.3031 -14.9240 -8.4454 0.9045
-17.0377 -14.9448 -8.1046 0.9082
-29.4808 -0.0000 -11.2976 0.8814
-29.4166 -1.0595 -11.2803 0.8815
-29.2254 -2.1080 -11.2288 0.8820
-28.4788 -4.1298 -11.0277 0.8840
-27.8143 -7.1620 -11.0066 0.8842
-26.9688 -7.9898 -10.7790 0.8865
-26.0551 -8.7509 -10.5329 0.8889
-25.0857 -9.4431 -10.2718 0.8915
-23.0286 -10.6181 -9.7179 0.8971
-20.8877 -11.5207 -9.1414 0.9029
-17.6780 -12.4094 -8.2770 0.9116
-16.6362 -12.5958 -7.9965 0.9145
-15.6170 -12.7338 -7.7220 0.9173
-14.6239 -12.8275 -7.4546 0.9200
-23.9932 0.0000 -9.8198 0.9015
-23.9478 -0.8626 -9.8076 0.9016
-23.8123 -1.7176 -9.7711 0.9020
-23.5889 -2.5578 -9.7110 0.9025
-23.9697 -4.3621 -9.9713 0.9001
-23.4867 -5.1539 -9.8413 0.9013
-21.6465 -7.2702 -9.3457 0.9060
-20.1727 -8.4346 -8.9488 0.9098
-19.3859 -8.9385 -8.7369 0.9119
-16.0761 -10.4419 -7.8457 0.9205
-14.4084 -10.9090 -7.3966 0.9249
-12.7815 -11.2114 -6.9584 0.9292
-20.9462 -1.5108 -9.1524 0.9124
-20.2465 -3.6845 -8.9687 0.9141
-19.4559 -5.0098 -8.7558 0.9161
-17.9065 -6.7406 -8.3385 0.9199
-17.3151 -7.2398 -8.1793 0.9214
-16.6958 -7.6981 -8.0125 0.9229
-14.7233 -8.8264 -7.4814 0.9278
-12.6789 -9.5996 -6.9308 0.9330
-11.3279 -9.9363 -6.5670 0.9364
-18.1362 -0.6532 -8.4004 0.9231
-17.4779 -3.1807 -8.2231 0.9247
-16.4722 -4.8800 -7.9523 0.9271
-16.0568 -5.3929 -7.8404 0.9281
-15.6078 -5.8753 -7.7195 0.9291
-15.1295 -6.3259 -7.5907 0.9303
-12.4404 -8.0804 -6.8666 0.9367
-11.8698 -8.3323 -6.7129 0.9381
-11.2961 -8.5526 -6.5584 0.9395
-15.8722 -0.5717 -7.7907 0.9317
-15.0985 -3.3132 -7.5824 0.9334
-14.8229 -3.8168 -7.5082 0.9341
-14.1703 -4.7593 -7.3324 0.9356
-13.7991 -5.1944 -7.2325 0.9364
-13.4021 -5.6037 -7.1256 0.9373
-12.5436 -6.3407 -6.8944 0.9393
-12.0884 -6.6675 -6.7718 0.9403
-11.6201 -6.9661 -6.6457 0.9414
-10.1642 -7.6957 -6.2536 0.9448
-14.0948 -0.0000 -7.3121 0.9385
-14.0758 -0.5070 -7.3070 0.9385
-14.0191 -1.0112 -7.2917 0.9386
-13.6294 -2.4803 -7.1868 0.9395
-13.4303 -2.9472 -7.1332 0.9399
-13.1995 -3.3988 -7.0710 0.9404
-12.9389 -3.8333 -7.0008 0.9410
-12.3374 -4.6442 -6.8388 0.9423
-11.2707 -5.6973 -6.5516 0.9447
-10.8814 -6.0017 -6.4468 0.9455
-9.2198 -6.9805 -5.9993 0.9492
-8.3570 -7.3304 -5.7670 0.9511
-12.6305 -0.0000 -6.9178 0.9440
-11.8689 -3.0562 -6.7127 0.9456
-11.3995 -3.8286 -6.5863 0.9466
-10.8413 -4.5330 -6.4360 0.9478
-10.5338 -4.8570 -6.3532 0.9485
-10.2101 -5.1612 -6.2660 0.9492
-9.5223 -5.7085 -6.0808 0.9506
-9.1622 -5.9511 -5.9838 0.9514
-8.7938 -6.1730 -5.8846 0.9522
-8.4189 -6.3742 -5.7836 0.9530
-11.4150 -0.0000 -6.5905 0.9486
-11.3597 -0.8194 -6.5756 0.9488
-11.0741 -2.0153 -6.4987 0.9493
-10.7574 -2.7700 -6.4134 0.9500
-10.3501 -3.4762 -6.3037 0.9508
-10.1162 -3.8081 -6.2407 0.9513
-9.8641 -4.1244 -6.1728 0.9518
-9.5954 -4.4243 -6.1005 0.9524
-9.3120 -4.7072 -6.0241 0.9529
-9.0154 -4.9725 -5.9443 0.9536
-8.3894 -5.4492 -5.7757 0.9548
-8.0634 -5.6602 -5.6879 0.9555
-7.3929 -6.0281 -5.5073 0.9569
-7.0514 -6.1852 -5.4154 0.9576
