ply
format ascii 1.0
element vertex 95
property float32 x
property float32 y
property float32 z
property float32 I
end_header
-27.8776 -5.4678 -4.6800 0.8912
-27.5442 -5.4024 -5.9332 0.8916
-28.1486 -4.4832 -6.6990 0.8895
-35.5292 -29.5608 -13.0842 0.8252
-31.8216 -28.4601 -12.0858 0.8374
-29.4224 -22.7513 -11.4397 0.8559
-26.8790 -22.3637 -10.7548 0.8639
-42.7085 -13.2526 -14.8643 0.8282
-38.3547 -14.9802 -13.6872 0.8407
-36.1719 -15.6391 -13.0994 0.8470
-35.6017 -16.9270 -13.1037 0.8469
-29.0953 -17.8794 -11.3516 0.8659
-23.3032 -18.0196 -9.7918 0.8832
-21.5572 -17.9359 -9.3217 0.8885
-19.9049 -17.8023 -8.8767 0.8935
-18.3449 -17.6264 -8.4566 0.8983
-36.9788 -4.5418 -13.3233 0.8536
-36.1978 -5.7652 -13.1078 0.8558
-35.3061 -6.9248 -12.8663 0.8583
-34.2939 -8.0084 -12.5937 0.8611
-31.9455 -9.9128 -11.9613 0.8675
-29.2288 -12.6372 -11.3875 0.8735
-23.3746 -14.3640 -9.8111 0.8900
-21.9585 -14.5995 -9.4297 0.8940
-20.5787 -14.7689 -9.0582 0.8980
-19.2412 -14.8785 -8.6980 0.9018
-17.9498 -14.9345 -8.3502 0.9056
-15.5159 -14.9083 -7.6948 0.9126
-28.2817 -4.5044 -10.9747 0.8846
-27.7052 -5.4340 -10.8194 0.8861
-27.5147 -7.4713 -10.9260 0.8850
-26.6496 -8.2695 -10.6930 0.8873
-19.4819 -11.9718 -8.7628 0.9067
-18.4208 -12.2474 -8.4770 0.9096
-17.3737 -12.4687 -8.1951 0.9125
-14.3627 -12.8456 -7.3843 0.9208
-13.4138 -12.8885 -7.1287 0.9234
-23.2887 -5.4385 -9.7879 0.9018
-22.7157 -6.1683 -9.6336 0.9033
-19.1229 -9.0921 -8.6661 0.9125
-14.9972 -10.7631 -7.5551 0.9233
-20.4425 -3.2559 -9.0215 0.9136
-18.2733 -6.3945 -8.4373 0.9190
-17.1106 -7.3979 -8.1242 0.9219
-15.8446 -8.2399 -7.7833 0.9250
-14.5167 -8.9207 -7.4257 0.9284
-17.6329 -2.8084 -8.2649 0.9243
-17.0664 -3.9854 -8.1123 0.9257
-16.7169 -4.5393 -8.0182 0.9265
-15.9033 -5.5651 -7.7991 0.9284
-14.9635 -6.4696 -7.5460 0.9307
-14.4563 -6.8733 -7.4095 0.9319
-13.3876 -7.5817 -7.1217 0.9344
-12.2711 -8.1587 -6.8210 0.9371
-11.7036 -8.3994 -6.6682 0.9385
-11.1338 -8.6094 -6.5147 0.9398
-9.9981 -8.9420 -6.2089 0.9426
-15.6345 -1.9203 -7.7267 0.9322
-15.2507 -2.9913 -7.6234 0.9331
-14.7137 -3.9954 -7.4788 0.9343
-14.0436 -4.9143 -7.2983 0.9359
-13.6659 -5.3375 -7.1966 0.9367
-13.2640 -5.7348 -7.0884 0.9376
-11.4750 -7.0516 -6.6066 0.9418
-8.5567 -8.2216 -5.8207 0.9485
-13.8780 -1.7045 -7.2537 0.9389
-13.5577 -2.6592 -7.1675 0.9396
-12.5439 -4.3896 -6.8945 0.9419
-11.5242 -5.4792 -6.6199 0.9441
-10.3544 -6.3629 -6.3049 0.9467
-9.5230 -6.8345 -6.0810 0.9486
-9.0984 -7.0355 -5.9666 0.9495
-8.2411 -7.3706 -5.7357 0.9514
-7.8118 -7.5059 -5.6201 0.9524
-12.4465 -1.5287 -6.8682 0.9444
-12.1742 -2.3878 -6.7949 0.9450
-11.7906 -3.2016 -6.6916 0.9458
-11.5608 -3.5874 -6.6297 0.9463
-11.3078 -3.9570 -6.5616 0.9468
-10.7403 -4.6436 -6.4088 0.9480
-9.7641 -5.5296 -6.1459 0.9501
-9.4134 -5.7847 -6.0514 0.9509
-9.0533 -6.0193 -5.9545 0.9516
-8.6856 -6.2335 -5.8555 0.9524
-8.3121 -6.4275 -5.7549 0.9532
-7.9344 -6.6015 -5.6532 0.9540
-11.2565 -1.3825 -6.5478 0.9490
-11.1516 -1.7761 -6.5195 0.9492
-10.8670 -2.5377 -6.4429 0.9498
-10.6895 -2.9027 -6.3951 0.9501
-9.7759 -4.2267 -6.1491 0.9520
-8.9202 -5.0517 -5.9186 0.9538
-7.2992 -6.0731 -5.4821 0.9571
-6.9595 -6.2243 -5.3906 0.9578
-6.6177 -6.3585 -5.2986 0.9585
