ply
format ascii 1.0
element vertex 326
property float32 x
property float32 y
property float32 z
property float32 I
end_header
18.5351 -40.8902 7.9162 0.8333
19.6017 -33.0458 6.7748 0.8555
19.4199 -30.1663 6.3260 0.8644
21.8286 -43.8173 7.4994 0.8203
10.2770 -17.3258 3.0860 0.9217
12.1276 -17.4048 3.2498 0.9177
8.6482 -17.3598 2.5256 0.9247
13.1070 -17.4155 2.8384 0.9158
6.3537 -17.2777 1.9768 0.9286
7.1069 -17.3392 2.0122 0.9274
7.8639 -17.3486 2.0454 0.9262
8.6474 -17.3583 2.0825 0.9249
9.4609 -17.3684 2.1238 0.9235
10.3086 -17.3789 2.1698 0.9219
11.1950 -17.3900 2.2209 0.9202
4.9629 -17.3112 1.5245 0.9303
10.0827 -16.9981 1.6730 0.9237
11.9097 -17.0921 1.7635 0.9198
2.9467 -17.2277 1.0838 0.9324
3.6004 -17.2296 1.0915 0.9319
4.2817 -17.3015 1.1052 0.9311
4.9625 -17.3099 1.1166 0.9304
5.6585 -17.3185 1.1298 0.9296
7.7347 -17.0635 1.1617 0.9277
9.3005 -17.0739 1.2057 0.9250
10.0822 -16.9973 1.2255 0.9239
10.9987 -17.0852 1.2600 0.9218
11.9091 -17.0912 1.2918 0.9199
4.9621 -17.3086 0.7100 0.9305
7.7344 -17.0628 0.7387 0.9277
10.9454 -17.0022 0.7973 0.9222
0.3972 -17.2512 0.2915 0.9333
1.6664 -17.2667 0.2930 0.9330
2.3078 -17.2746 0.2944 0.9327
2.9562 -17.2826 0.2962 0.9323
3.6132 -17.2907 0.2984 0.9318
4.2037 -16.9863 0.2956 0.9324
5.5700 -17.0477 0.3029 0.9308
10.1300 -17.0778 0.3354 0.9236
10.9448 -17.0014 0.3416 0.9223
12.8666 -17.0959 0.3614 0.9180
1.0301 -17.2577 -0.0973 0.9332
2.2983 -17.2035 -0.0977 0.9329
2.9559 -17.2813 -0.0987 0.9323
3.5596 -17.0338 -0.0980 0.9328
4.2165 -17.0381 -0.0988 0.9322
6.2706 -17.0516 -0.1023 0.9299
6.9910 -17.0564 -0.1038 0.9289
7.7337 -17.0613 -0.1055 0.9278
8.5020 -17.0663 -0.1073 0.9266
9.2992 -17.0716 -0.1094 0.9252
10.1295 -17.0770 -0.1118 0.9236
1.0300 -17.2564 -0.4868 0.9332
1.6427 -17.0205 -0.4815 0.9339
2.9127 -17.0288 -0.4865 0.9332
3.5594 -17.0331 -0.4900 0.9327
4.8622 -16.9599 -0.4968 0.9318
5.5696 -17.0463 -0.5050 0.9308
6.2704 -17.0509 -0.5116 0.9299
7.7334 -17.0605 -0.5274 0.9278
10.1290 -17.0762 -0.5591 0.9236
10.4531 -16.2375 -0.5438 0.9256
10.6248 -14.1172 -0.4975 0.9317
0.3917 -17.0116 -0.8630 0.9341
1.0156 -17.0157 -0.8645 0.9340
1.6426 -17.0198 -0.8672 0.9338
2.2744 -17.0239 -0.8710 0.9335
3.5593 -17.0324 -0.8824 0.9327
4.2162 -17.0367 -0.8901 0.9321
4.8620 -16.9592 -0.8947 0.9318
5.5693 -17.0456 -0.9094 0.9307
6.9904 -17.0549 -0.9348 0.9288
7.7330 -17.0598 -0.9499 0.9277
8.5012 -17.0648 -0.9669 0.9265
8.9491 -16.4287 -0.9488 0.9278
9.2530 -14.3734 -0.8669 0.9338
9.3818 -13.4641 -0.8322 0.9364
-0.2309 -17.0068 -1.2471 0.9341
1.0156 -17.0150 -1.2498 0.9339
2.2743 -17.0232 -1.2593 0.9334
2.9125 -17.0274 -1.2666 0.9331
3.5591 -17.0317 -1.2758 0.9326
4.8618 -16.9585 -1.2935 0.9317
7.5157 -16.5802 -1.3348 0.9296
7.9482 -14.5913 -1.2183 0.9355
8.1321 -13.7097 -1.1688 0.9381
8.2982 -12.8902 -1.1240 0.9404
-4.0055 -46.0458 -4.4373 0.8305
-0.8497 -16.9203 -1.6265 0.9342
0.3916 -17.0102 -1.6335 0.9339
2.9124 -17.0267 -1.6584 0.9329
3.5590 -17.0310 -1.6704 0.9325
4.8616 -16.9577 -1.6936 0.9316
5.5421 -16.9622 -1.7132 0.9308
6.1351 -16.6832 -1.7065 0.9311
6.9309 -13.9126 -1.4922 0.9395
7.3418 -12.3773 -1.3816 0.9438
-4.8256 -38.9167 -4.6582 0.8539
-3.0495 -35.0560 -4.1799 0.8678
0.3916 -17.0095 -2.0210 0.9338
2.2741 -17.0219 -2.0399 0.9332
2.9123 -17.0261 -2.0518 0.9328
3.5588 -17.0303 -2.0667 0.9323
4.2157 -17.0346 -2.0845 0.9318
5.1532 -15.7720 -1.9710 0.9353
5.4750 -14.8882 -1.8843 0.9381
5.7660 -14.0676 -1.8059 0.9406
6.2699 -12.5857 -1.6702 0.9449
6.4888 -11.9121 -1.6113 0.9468
6.8370 -11.5263 -1.5919 0.9474
7.1908 -11.1699 -1.5780 0.9479
7.3711 -10.5785 -1.5315 0.9494
7.5328 -10.0088 -1.4880 0.9508
-0.2298 -16.9230 -2.3980 0.9339
0.3916 -17.0088 -2.4106 0.9336
2.9122 -17.0253 -2.4473 0.9326
3.9096 -15.7976 -2.3059 0.9364
4.2872 -14.9541 -2.2042 0.9391
5.7780 -11.5985 -1.8360 0.9490
6.8000 -9.7590 -1.6853 0.9531
6.9645 -9.2538 -1.6410 0.9543
-2.0585 -23.6633 -3.9130 0.9082
0.3916 -17.0081 -2.8026 0.9334
1.6423 -17.0163 -2.8163 0.9330
2.6947 -15.7541 -2.6330 0.9373
3.1253 -14.9559 -2.5170 0.9399
3.5168 -14.2105 -2.4116 0.9424
4.4987 -12.2331 -2.1472 0.9485
5.2511 -11.5843 -2.0953 0.9497
5.5054 -11.0511 -2.0339 0.9512
6.3082 -9.0531 -1.8178 0.9563
-1.7681 -20.3254 -3.8348 0.9203
-0.9656 -19.2281 -3.6187 0.9246
-0.2298 -16.9216 -3.1809 0.9334
0.3916 -17.0074 -3.1976 0.9331
0.9809 -16.4344 -3.0945 0.9352
2.4266 -14.1864 -2.7052 0.9431
2.8267 -13.5270 -2.5975 0.9453
3.5305 -12.3148 -2.4079 0.9492
3.8559 -11.8014 -2.3336 0.9507
4.5974 -11.2165 -2.2785 0.9519
5.0904 -10.2180 -2.1457 0.9546
-0.8513 -16.9524 -3.5879 0.9330
-0.2195 -16.1674 -3.4178 0.9360
1.3600 -14.0912 -2.9924 0.9438
2.5783 -12.3381 -2.6644 0.9498
2.9518 -11.9277 -2.5973 0.9510
3.3863 -11.8117 -2.5973 0.9510
3.7020 -11.3303 -2.5196 0.9524
4.2539 -10.3786 -2.3709 0.9552
4.5009 -9.9294 -2.3044 0.9564
4.7307 -9.4961 -2.2426 0.9576
4.9446 -9.0773 -2.1850 0.9586
5.1439 -8.6720 -2.1313 0.9596
5.3297 -8.2790 -2.0813 0.9605
5.5029 -7.8974 -2.0346 0.9614
-0.1971 -14.5153 -3.4117 0.9421
0.7971 -13.3538 -3.1440 0.9465
1.2367 -12.8142 -3.0256 0.9485
2.0647 -12.0711 -2.8782 0.9509
2.4756 -11.8469 -2.8444 0.9515
3.4273 -10.4896 -2.5936 0.9557
3.7007 -10.0632 -2.5199 0.9569
4.1935 -9.2513 -2.3872 0.9591
4.8173 -8.1214 -2.2192 0.9619
4.9987 -7.7649 -2.1704 0.9628
-1.8306 -14.7628 -3.8516 0.9404
-1.2356 -14.2033 -3.6914 0.9428
-0.1786 -13.1565 -3.4068 0.9471
0.7368 -12.3437 -3.2017 0.9502
1.5798 -11.8249 -3.0889 0.9519
1.9482 -11.3898 -2.9919 0.9534
2.2908 -10.9622 -2.8996 0.9548
2.6105 -10.5483 -2.8135 0.9561
2.9091 -10.1472 -2.7331 0.9573
3.1882 -9.7579 -2.6579 0.9585
3.4494 -9.3798 -2.5876 0.9595
3.9228 -8.6540 -2.4601 0.9615
4.1373 -8.3050 -2.4024 0.9624
4.3384 -7.9644 -2.3482 0.9632
4.8693 -6.9880 -2.2053 0.9654
-0.6362 -12.6683 -3.5908 0.9486
0.2796 -12.1422 -3.4383 0.9508
1.0934 -11.3290 -3.2221 0.9538
1.4609 -10.9349 -3.1231 0.9552
1.8048 -10.5516 -3.0305 0.9565
2.1270 -10.1786 -2.9437 0.9577
2.7123 -9.4606 -2.7861 0.9599
2.9781 -9.1147 -2.7145 0.9609
3.4620 -8.4465 -2.5842 0.9628
3.8892 -7.8070 -2.4692 0.9644
4.4384 -6.8946 -2.3213 0.9665
4.5999 -6.6015 -2.2778 0.9671
4.7516 -6.3135 -2.2369 0.9677
-1.5749 -12.7006 -3.9363 0.9479
0.2580 -11.2040 -3.4470 0.9542
1.3567 -10.1549 -3.1512 0.9580
2.2692 -9.1695 -2.9054 0.9612
2.5383 -8.8538 -2.8330 0.9622
3.0303 -8.2402 -2.7005 0.9639
4.0318 -6.7971 -2.4308 0.9675
4.1987 -6.5222 -2.3858 0.9681
-0.9860 -11.3349 -3.7820 0.9532
-0.1452 -10.6956 -3.5556 0.9559
0.6013 -10.0739 -3.3546 0.9584
0.9429 -9.7697 -3.2626 0.9595
1.2652 -9.4699 -3.1758 0.9605
2.1274 -8.5962 -2.9436 0.9634
2.3833 -8.3133 -2.8747 0.9642
3.0692 -7.4880 -2.6900 0.9665
3.2729 -7.2203 -2.6351 0.9671
3.9807 -6.1835 -2.4445 0.9695
-1.3336 -10.7553 -3.8756 0.9550
-0.9117 -10.4804 -3.7620 0.9563
-0.5125 -10.2065 -3.6545 0.9575
-0.1349 -9.9341 -3.5528 0.9587
0.2225 -9.6633 -3.4566 0.9598
1.1841 -8.8630 -3.1976 0.9627
1.4711 -8.6007 -3.1203 0.9636
2.0004 -8.0832 -2.9778 0.9652
2.6938 -7.3252 -2.7911 0.9674
3.0970 -6.8322 -2.6825 0.9686
3.4582 -6.3485 -2.5852 0.9698
3.7814 -5.8739 -2.4982 0.9708
3.9299 -5.6399 -2.4582 0.9712
-0.8468 -9.7346 -3.7445 0.9590
0.2079 -9.0278 -3.4605 0.9621
1.3832 -8.0868 -3.1440 0.9655
1.8860 -7.6210 -3.0086 0.9669
2.5489 -6.9312 -2.8301 0.9689
2.9365 -6.4782 -2.7257 0.9700
3.2852 -6.0310 -2.6318 0.9710
3.4460 -5.8095 -2.5885 0.9715
3.5983 -5.5896 -2.5475 0.9719
-1.1504 -9.2779 -3.8263 0.9604
-0.1177 -8.6687 -3.5482 0.9632
0.1948 -8.4616 -3.4640 0.9641
0.4926 -8.2532 -3.3838 0.9649
1.0466 -7.8338 -3.2347 0.9664
1.3040 -7.6233 -3.1653 0.9671
1.7823 -7.2020 -3.0365 0.9684
2.0044 -6.9915 -2.9767 0.9691
2.4167 -6.5716 -2.8657 0.9702
2.6078 -6.3625 -2.8142 0.9707
2.7895 -6.1539 -2.7653 0.9712
3.1261 -5.7389 -2.6747 0.9722
3.7020 -4.9188 -2.5196 0.9737
-1.0746 -8.6664 -3.8059 0.9626
-0.7388 -8.4932 -3.7155 0.9635
0.1831 -7.9535 -3.4672 0.9659
0.4637 -7.7684 -3.3916 0.9666
1.2321 -7.2029 -3.1847 0.9686
1.4653 -7.0119 -3.1219 0.9692
1.6878 -6.8201 -3.0620 0.9698
2.2954 -6.2418 -2.8984 0.9714
2.4792 -6.0485 -2.8489 0.9719
2.8207 -5.6621 -2.7569 0.9728
3.1298 -5.2765 -2.6737 0.9736
3.2729 -5.0841 -2.6351 0.9740
3.5376 -4.7004 -2.5639 0.9747
-1.0069 -8.1205 -3.7877 0.9646
-0.3925 -7.8154 -3.6222 0.9661
-0.1040 -7.6567 -3.5445 0.9668
0.1726 -7.4945 -3.4700 0.9675
0.9340 -6.9914 -3.2650 0.9694
1.1664 -6.8193 -3.2024 0.9700
1.6012 -6.4702 -3.0853 0.9710
1.8043 -6.2937 -3.0306 0.9716
2.1836 -5.9378 -2.9285 0.9725
2.5290 -5.5792 -2.8355 0.9734
2.6898 -5.3992 -2.7922 0.9738
2.9887 -5.0385 -2.7117 0.9745
3.2592 -4.6773 -2.6388 0.9752
3.3843 -4.4968 -2.6051 0.9755
-0.9461 -7.6298 -3.7713 0.9663
-0.6523 -7.4987 -3.6922 0.9670
-0.0981 -7.2221 -3.5429 0.9683
0.1630 -7.0776 -3.4726 0.9690
0.6542 -6.7783 -3.3403 0.9701
0.8850 -6.6242 -3.2782 0.9707
1.1063 -6.4676 -3.2186 0.9712
1.3184 -6.3088 -3.1615 0.9717
1.9021 -5.8218 -3.0043 0.9731
2.0802 -5.6566 -2.9563 0.9735
2.2503 -5.4902 -2.9105 0.9739
2.4129 -5.3229 -2.8667 0.9743
2.5680 -5.1549 -2.8250 0.9747
2.7160 -4.9861 -2.7851 0.9750
2.9915 -4.6470 -2.7109 0.9757
3.2410 -4.3063 -2.6437 0.9763
-0.8910 -7.1859 -3.7564 0.9679
-0.3490 -6.9509 -3.6105 0.9691
0.3918 -6.5634 -3.4110 0.9708
1.6343 -5.7005 -3.0764 0.9736
1.8129 -5.5487 -3.0283 0.9740
2.1479 -5.2404 -2.9381 0.9748
2.3046 -5.0842 -2.8959 0.9752
2.5975 -4.7685 -2.8170 0.9758
2.7341 -4.6093 -2.7802 0.9761
2.8643 -4.4493 -2.7452 0.9764
2.9884 -4.2887 -2.7118 0.9767
-0.3301 -6.5745 -3.6054 0.9704
-0.0877 -6.4630 -3.5401 0.9710
0.9996 -5.8441 -3.2473 0.9733
1.1933 -5.7104 -3.1952 0.9737
1.5583 -5.4354 -3.0969 0.9745
1.7299 -5.2945 -3.0507 0.9749
1.8945 -5.1517 -3.0063 0.9753
2.0523 -5.0071 -2.9638 0.9756
2.2034 -4.8610 -2.9231 0.9760
2.3481 -4.7134 -2.8842 0.9763
2.4865 -4.5646 -2.8469 0.9766
2.6187 -4.4147 -2.8113 0.9769
2.8652 -4.1119 -2.7449 0.9774
-0.7951 -6.4125 -3.7306 0.9706
-0.5501 -6.3234 -3.6646 0.9711
-0.3128 -6.2288 -3.6007 0.9716
-0.0832 -6.1290 -3.5389 0.9721
0.7596 -5.6859 -3.3119 0.9739
1.1374 -5.4427 -3.2102 0.9746
1.3158 -5.3167 -3.1622 0.9750
1.4874 -5.1880 -3.1160 0.9754
1.9628 -4.7887 -2.9879 0.9764
2.1086 -4.6517 -2.9487 0.9767
2.2483 -4.5131 -2.9111 0.9770
2.5100 -4.2316 -2.8406 0.9775
