ply
format ascii 1.0
element vertex 332
property float32 x
property float32 y
property float32 z
property float32 I
end_header
19.3375 -40.1732 7.8615 0.8344
20.1222 -32.5171 6.7427 0.8561
13.4938 -17.3987 3.8824 0.9145
12.5476 -17.4101 3.2876 0.9168
13.5121 -17.4222 3.3776 0.9146
9.9839 -11.9783 2.3888 0.9388
8.3351 -17.3161 2.5025 0.9254
9.1247 -17.3657 2.5545 0.9239
9.9248 -17.3757 2.6058 0.9225
12.5464 -17.4085 2.7943 0.9171
6.1695 -17.2707 1.9693 0.9289
6.8896 -17.3364 2.0032 0.9277
9.8844 -17.3049 2.1400 0.9230
11.6299 -17.3954 2.2470 0.9193
12.3210 -17.0957 2.2629 0.9187
13.2638 -17.1020 2.3240 0.9166
4.8419 -17.3098 1.5216 0.9304
6.1894 -17.3264 1.5575 0.9288
8.3385 -17.3231 1.6275 0.9257
9.7547 -17.0777 1.6649 0.9241
10.5206 -17.0010 1.6925 0.9229
4.1892 -17.3004 1.1038 0.9311
4.8415 -17.3084 1.1145 0.9305
8.2151 -17.0667 1.1745 0.9269
10.5200 -17.0002 1.2397 0.9230
11.4245 -17.0880 1.2746 0.9209
12.3198 -17.0940 1.3066 0.9190
14.2587 -17.1069 1.3810 0.9146
1.6781 -17.2682 0.6841 0.9329
2.2946 -17.2758 0.6872 0.9326
5.5069 -17.3153 0.7165 0.9298
6.0914 -17.0519 0.7140 0.9301
7.4853 -17.0611 0.7346 0.9281
8.2147 -17.0660 0.7468 0.9270
11.4239 -17.0872 0.8105 0.9210
12.3192 -17.0931 0.8308 0.9191
13.2617 -17.0994 0.8533 0.9170
14.2579 -17.1060 0.8781 0.9147
1.0663 -17.2594 0.2921 0.9332
2.9172 -17.2821 0.2961 0.9323
4.1886 -17.2977 0.3006 0.9313
5.4215 -17.0467 0.3022 0.9309
6.0911 -17.0512 0.3059 0.9301
7.4849 -17.0604 0.3147 0.9282
8.2144 -17.0652 0.3199 0.9270
9.7533 -17.0753 0.3322 0.9243
11.4234 -17.0864 0.3472 0.9211
13.2610 -17.0985 0.3655 0.9171
0.4577 -17.2506 -0.0972 0.9333
2.2857 -17.2083 -0.0977 0.9329
2.9170 -17.2808 -0.0987 0.9323
3.4954 -17.0334 -0.0979 0.9328
4.1256 -17.0375 -0.0987 0.9323
4.7440 -16.9598 -0.0992 0.9320
5.4213 -17.0460 -0.1007 0.9309
6.0908 -17.0504 -0.1019 0.9301
8.2140 -17.0644 -0.1066 0.9270
9.7528 -17.0746 -0.1107 0.9244
10.5186 -16.9978 -0.1125 0.9232
11.4228 -17.0855 -0.1157 0.9211
12.0417 -16.7081 -0.1159 0.9209
12.0779 -14.4905 -0.1062 0.9273
0.4577 -17.2493 -0.4859 0.9333
1.0661 -17.2568 -0.4868 0.9332
3.4953 -17.0327 -0.4896 0.9328
4.7438 -16.9591 -0.4959 0.9320
5.4211 -17.0453 -0.5036 0.9309
6.0906 -17.0497 -0.5098 0.9301
6.7775 -17.0542 -0.5167 0.9292
7.4843 -17.0589 -0.5245 0.9282
8.2136 -17.0637 -0.5332 0.9270
9.7524 -17.0737 -0.5537 0.9243
10.6544 -13.7376 -0.4895 0.9328
10.7214 -12.8630 -0.4715 0.9352
-0.1491 -17.2406 -0.8744 0.9333
1.0512 -17.0159 -0.8646 0.9340
1.6540 -17.0199 -0.8672 0.9338
2.2612 -17.0238 -0.8709 0.9335
2.8743 -17.0279 -0.8758 0.9332
3.4951 -17.0320 -0.8818 0.9327
4.7436 -16.9584 -0.8930 0.9319
5.4208 -17.0446 -0.9071 0.9309
9.0398 -15.8263 -0.9243 0.9296
9.4337 -13.0895 -0.8183 0.9374
9.5405 -12.3014 -0.7895 0.9396
0.4514 -17.0112 -1.2477 0.9340
1.0512 -17.0152 -1.2500 0.9339
2.2611 -17.0232 -1.2591 0.9334
4.1251 -17.0354 -1.2852 0.9321
4.7434 -16.9577 -1.2911 0.9318
5.3946 -16.9620 -1.3051 0.9311
6.0901 -17.0483 -1.3274 0.9300
7.4341 -16.9446 -1.3567 0.9285
7.8671 -14.9724 -1.2401 0.9344
8.0520 -14.0968 -1.1903 0.9370
8.5095 -11.8071 -1.0671 0.9433
-0.1471 -17.0066 -1.6328 0.9339
1.0512 -17.0145 -1.6366 0.9338
1.6539 -17.0185 -1.6416 0.9336
2.8741 -17.0265 -1.6577 0.9330
3.4948 -17.0306 -1.6691 0.9325
6.3462 -15.9688 -1.6497 0.9333
7.0606 -13.4375 -1.4573 0.9408
7.4350 -12.0149 -1.3565 0.9448
7.6888 -11.5005 -1.3281 0.9459
8.3879 -10.0634 -1.2577 0.9487
-0.1470 -17.0059 -2.0201 0.9338
0.4513 -17.0099 -2.0212 0.9338
2.2609 -17.0218 -2.0397 0.9332
2.8740 -17.0258 -2.0510 0.9328
4.1247 -17.0340 -2.0819 0.9318
5.0795 -15.9713 -1.9908 0.9347
5.3964 -15.1063 -1.9055 0.9374
5.6837 -14.3019 -1.8281 0.9399
5.9451 -13.5505 -1.7577 0.9421
6.1835 -12.8461 -1.6935 0.9442
6.4015 -12.1831 -1.6348 0.9461
7.7317 -9.2761 -1.4344 0.9525
0.4513 -17.0092 -2.4109 0.9336
1.0511 -17.0131 -2.4152 0.9335
3.4478 -16.8015 -2.4302 0.9331
4.2233 -15.0983 -2.2214 0.9386
4.5585 -14.3333 -2.1311 0.9410
5.4002 -12.3086 -1.9044 0.9471
6.0758 -11.5633 -1.8508 0.9486
6.8732 -9.5367 -1.6656 0.9536
7.1679 -8.5997 -1.5862 0.9558
-0.1463 -16.9228 -2.7880 0.9337
1.0510 -17.0125 -2.8080 0.9332
1.6537 -17.0164 -2.8165 0.9330
2.6677 -15.8035 -2.6403 0.9371
3.0847 -15.0321 -2.5280 0.9397
3.4651 -14.3100 -2.4255 0.9421
3.8130 -13.6316 -2.3319 0.9442
4.4252 -12.3876 -2.1670 0.9481
4.6951 -11.8142 -2.0943 0.9498
5.1093 -11.6455 -2.0950 0.9498
5.8468 -10.2362 -1.9420 0.9533
6.0384 -9.7580 -1.8904 0.9545
6.2162 -9.2979 -1.8425 0.9557
6.3815 -8.8544 -1.7980 0.9567
6.5351 -8.4262 -1.7567 0.9577
1.0124 -16.3873 -3.0860 0.9354
1.5180 -15.6206 -2.9499 0.9381
2.7888 -13.5902 -2.6077 0.9451
3.4731 -12.4165 -2.4234 0.9489
3.7761 -11.8730 -2.3418 0.9506
4.5160 -11.3636 -2.2984 0.9514
5.0046 -10.3969 -2.1688 0.9541
5.2221 -9.9385 -2.1102 0.9553
5.6131 -9.0706 -2.0050 0.9575
5.7887 -8.6584 -1.9576 0.9585
5.9525 -8.2592 -1.9136 0.9594
0.4077 -15.3645 -3.2489 0.9391
0.9084 -14.7039 -3.1140 0.9415
1.3683 -14.0798 -2.9902 0.9438
1.7916 -13.4884 -2.8762 0.9459
3.3171 -11.8588 -2.6029 0.9509
3.6362 -11.4332 -2.5360 0.9521
4.1781 -10.5134 -2.3914 0.9548
4.8588 -9.2471 -2.2081 0.9582
5.0563 -8.8521 -2.1549 0.9592
5.2408 -8.4690 -2.1052 0.9601
5.5745 -7.7347 -2.0153 0.9618
5.7253 -7.3821 -1.9747 0.9625
-0.1248 -14.4333 -3.3923 0.9424
1.2444 -12.8047 -3.0236 0.9485
2.0386 -12.0771 -2.8785 0.9509
2.7734 -11.4536 -2.7696 0.9527
3.3659 -10.5833 -2.6101 0.9554
3.6330 -10.1702 -2.5381 0.9566
3.8828 -9.7702 -2.4709 0.9577
4.5400 -8.6403 -2.2939 0.9607
4.9119 -7.9375 -2.1938 0.9624
5.2387 -7.2688 -2.1058 0.9639
5.3870 -6.9458 -2.0658 0.9645
0.3348 -12.6192 -3.2685 0.9492
1.1887 -12.2319 -3.1820 0.9505
2.2581 -11.0037 -2.9084 0.9546
3.8485 -8.7718 -2.4801 0.9612
4.0594 -8.4333 -2.4233 0.9621
4.2576 -8.1029 -2.3700 0.9629
4.7834 -7.1547 -2.2284 0.9651
4.9381 -6.8516 -2.1867 0.9657
5.0833 -6.5543 -2.1476 0.9663
1.1003 -11.3218 -3.2202 0.9538
1.4535 -10.9430 -3.1251 0.9551
1.7850 -10.5742 -3.0358 0.9564
2.3887 -9.8645 -2.8733 0.9587
2.6636 -9.5224 -2.7992 0.9597
2.9223 -9.1884 -2.7296 0.9607
3.1657 -8.8619 -2.6640 0.9616
3.6107 -8.2298 -2.5442 0.9633
4.0056 -7.6232 -2.4378 0.9648
4.1860 -7.3285 -2.3892 0.9655
4.3560 -7.0393 -2.3435 0.9662
4.5162 -6.7551 -2.3003 0.9668
4.6671 -6.4756 -2.2597 0.9674
4.8091 -6.2008 -2.2214 0.9679
0.2964 -11.1695 -3.4367 0.9543
0.6689 -10.8266 -3.3364 0.9556
1.3497 -10.1619 -3.1530 0.9580
1.6609 -9.8395 -3.0692 0.9591
1.9543 -9.5234 -2.9902 0.9601
2.7384 -8.6104 -2.7791 0.9629
2.9710 -8.3170 -2.7164 0.9637
3.1907 -8.0286 -2.6573 0.9645
3.5939 -7.4663 -2.5487 0.9659
3.7790 -7.1920 -2.4989 0.9666
3.9537 -6.9218 -2.4518 0.9672
4.1186 -6.6556 -2.4074 0.9678
4.2744 -6.3933 -2.3654 0.9683
-0.0921 -10.6532 -3.5413 0.9561
0.9489 -9.7642 -3.2610 0.9595
1.5516 -9.1919 -3.0987 0.9615
1.8288 -8.9117 -3.0240 0.9624
2.3392 -8.3629 -2.8866 0.9641
2.5742 -8.0940 -2.8233 0.9648
2.7966 -7.8288 -2.7634 0.9656
3.0072 -7.5671 -2.7067 0.9663
3.3953 -7.0537 -2.6022 0.9675
3.5740 -6.8018 -2.5541 0.9681
4.3324 -5.5861 -2.3498 0.9706
4.4599 -5.3508 -2.3155 0.9711
0.2557 -9.6375 -3.4476 0.9599
0.5795 -9.3792 -3.3605 0.9609
1.4544 -8.6163 -3.1248 0.9636
1.7168 -8.3662 -3.0542 0.9644
1.9659 -8.1184 -2.9871 0.9651
2.4265 -7.6296 -2.8631 0.9666
3.2149 -6.6790 -2.6507 0.9690
3.3874 -6.4468 -2.6043 0.9695
3.5510 -6.2167 -2.5603 0.9700
3.7060 -5.9888 -2.5185 0.9705
3.8528 -5.7628 -2.4790 0.9710
4.2479 -5.0964 -2.3726 0.9722
0.2390 -9.0052 -3.4521 0.9621
0.8311 -8.5520 -3.2927 0.9639
1.8531 -7.6529 -3.0175 0.9668
2.0784 -7.4305 -2.9568 0.9675
2.2928 -7.2092 -2.8991 0.9681
2.6906 -6.7705 -2.7919 0.9693
3.2168 -6.1221 -2.6502 0.9708
3.5252 -5.6966 -2.5672 0.9717
3.9308 -5.0683 -2.4580 0.9729
-0.0747 -8.6409 -3.5366 0.9633
0.7814 -8.0400 -3.3061 0.9657
1.2890 -7.6359 -3.1694 0.9671
1.5254 -7.4334 -3.1057 0.9677
1.7509 -7.2310 -3.0450 0.9684
1.9661 -7.0286 -2.9871 0.9689
2.1711 -6.8266 -2.9318 0.9695
2.8992 -6.0230 -2.7358 0.9715
3.0600 -5.8237 -2.6925 0.9720
3.3584 -5.4272 -2.6121 0.9728
3.6279 -5.0338 -2.5395 0.9735
3.7525 -4.8384 -2.5060 0.9739
3.8706 -4.6437 -2.4742 0.9742
0.2106 -7.9358 -3.4598 0.9660
0.4793 -7.7578 -3.3874 0.9667
0.7364 -7.5780 -3.3182 0.9673
0.9825 -7.3967 -3.2519 0.9680
1.2178 -7.2143 -3.1886 0.9686
1.6579 -6.8465 -3.0700 0.9697
1.8634 -6.6617 -3.0147 0.9703
2.0597 -6.4764 -2.9618 0.9708
2.4262 -6.1051 -2.8631 0.9717
2.5970 -5.9194 -2.8171 0.9722
3.0632 -5.3628 -2.6916 0.9734
3.5867 -4.6246 -2.5506 0.9748
3.7017 -4.4411 -2.5197 0.9751
0.1984 -7.4788 -3.4631 0.9676
0.6957 -7.1585 -3.3292 0.9688
0.9291 -6.9950 -3.2663 0.9694
1.3672 -6.6627 -3.1483 0.9705
1.7692 -6.3249 -3.0401 0.9715
1.9574 -6.1544 -2.9894 0.9719
2.1374 -5.9832 -2.9409 0.9724
2.7811 -5.2928 -2.7676 0.9740
2.9242 -5.1194 -2.7290 0.9743
3.0607 -4.9459 -2.6923 0.9747
-0.0623 -7.2028 -3.5333 0.9684
0.4276 -6.9210 -3.4014 0.9696
0.8803 -6.6274 -3.2794 0.9707
1.0933 -6.4770 -3.2221 0.9712
1.2979 -6.3246 -3.1670 0.9716
1.8628 -5.8571 -3.0149 0.9730
2.0357 -5.6986 -2.9683 0.9734
2.3598 -5.3785 -2.8810 0.9742
2.6562 -5.0553 -2.8012 0.9749
2.7947 -4.8927 -2.7639 0.9752
3.1730 -4.4027 -2.6620 0.9761
3.2874 -4.2387 -2.6312 0.9764
3.3962 -4.0746 -2.6019 0.9766
-0.0589 -6.8087 -3.5324 0.9698
0.4050 -6.5557 -3.4074 0.9708
0.6243 -6.4241 -3.3484 0.9713
0.8354 -6.2895 -3.2915 0.9718
1.4216 -5.8708 -3.1337 0.9731
1.7751 -5.5815 -3.0385 0.9740
1.9413 -5.4344 -2.9937 0.9743
2.1007 -5.2859 -2.9508 0.9747
2.2534 -5.1361 -2.9097 0.9750
2.3997 -4.9853 -2.8703 0.9754
2.5397 -4.8335 -2.8326 0.9757
2.8016 -4.5274 -2.7620 0.9763
2.9238 -4.3733 -2.7291 0.9766
3.0405 -4.2187 -2.6977 0.9768
3.1516 -4.0636 -2.6678 0.9771
-0.0557 -6.4476 -3.5315 0.9710
0.3843 -6.2197 -3.4130 0.9720
0.5928 -6.1002 -3.3569 0.9724
0.9878 -5.8520 -3.2505 0.9733
1.3543 -5.5929 -3.1518 0.9741
1.8533 -5.1881 -3.0174 0.9752
2.0068 -5.0496 -2.9761 0.9755
2.4306 -4.6257 -2.8620 0.9765
2.5601 -4.4821 -2.8271 0.9767
2.8026 -4.1919 -2.7618 0.9773
2.9157 -4.0457 -2.7313 0.9775
3.0237 -3.8987 -2.7022 0.9777
3.1265 -3.7511 -2.6745 0.9780
-0.0529 -6.1152 -3.5307 0.9721
1.6174 -5.0854 -3.0810 0.9757
1.7711 -4.9579 -3.0396 0.9760
2.0609 -4.6973 -2.9615 0.9766
2.1972 -4.5646 -2.9248 0.9769
2.3280 -4.4305 -2.8896 0.9771
2.5734 -4.1586 -2.8235 0.9777
2.6883 -4.0210 -2.7926 0.9779
2.7981 -3.8824 -2.7630 0.9781
2.9029 -3.7430 -2.7348 0.9784
