ply
format ascii 1.0
element vertex 264
property float32 x
property float32 y
property float32 z
property float32 I
end_header
9.2722 29.9788 5.5331 0.8803
7.3685 31.5010 5.7044 0.8769
7.0600 35.8029 6.4346 0.8622
8.4739 31.2410 4.9589 0.8772
9.4256 30.4750 4.1539 0.8793
-0.7378 6.0625 0.7953 0.9757
9.6197 31.1023 3.4959 0.8772
1.8975 15.1598 1.2933 0.9405
-0.8938 7.3447 0.6263 0.9707
9.9198 32.0725 0.5671 0.8743
10.0675 37.1159 0.6496 0.8574
2.2965 25.6115 0.4344 0.9022
-16.9690 44.1787 0.7994 0.8275
-17.3636 37.1811 0.6932 0.8486
10.2574 33.1641 -0.1954 0.8704
-20.9740 44.9122 -0.2791 0.8201
9.1283 33.6535 -0.9819 0.8698
8.7571 37.4372 -1.0826 0.8574
7.7620 48.2234 -1.3755 0.8225
-0.6347 7.3610 -0.2080 0.9709
6.9951 29.9046 -1.5575 0.8843
6.4770 32.8462 -1.6978 0.8745
2.5115 15.6020 -0.8014 0.9387
-0.6332 7.3432 -0.3738 0.9709
6.6496 21.4994 -1.6501 0.9137
6.2636 23.0921 -1.7543 0.9085
5.3097 26.9268 -2.0124 0.8958
4.7123 29.2735 -2.1740 0.8879
2.7313 30.4610 -2.2424 0.8846
-0.3751 7.3598 -0.5403 0.9709
-0.6310 7.3181 -0.5386 0.9710
-8.5694 24.8854 -1.9298 0.8998
5.7917 18.7254 -1.8817 0.9243
2.5625 28.5775 -2.7546 0.8911
1.6916 31.0995 -2.9901 0.8824
0.6557 34.0575 -3.2703 0.8721
-0.5953 37.5833 -3.6086 0.8598
3.8979 19.7670 -2.3933 0.9220
2.8752 17.8614 -2.1490 0.9297
2.8096 22.4475 -2.6873 0.9129
2.1536 24.0182 -2.8645 0.9074
1.4025 25.7857 -3.0675 0.9012
0.5351 27.7932 -3.3021 0.8941
-0.4767 30.0978 -3.5756 0.8858
-0.6298 7.3037 -0.8708 0.9709
-4.8350 39.7286 -4.7540 0.8511
-6.9881 44.3755 -5.3362 0.8345
1.8562 20.7002 -2.9448 0.9195
1.1970 22.0073 -3.1228 0.9148
0.4516 23.4567 -3.3242 0.9096
-0.3971 25.0765 -3.5535 0.9036
-0.3740 7.3380 -1.0411 0.9708
-0.6292 7.2964 -1.0377 0.9708
-3.8184 31.3754 -4.4784 0.8801
-5.3803 34.1657 -4.9006 0.8696
4.0622 13.1337 -2.2648 0.9458
2.5661 13.0132 -2.1851 0.9476
2.1444 17.1331 -2.8445 0.9324
-0.3401 21.4737 -3.5380 0.9166
-0.3746 7.3490 -1.2122 0.9706
-4.3687 27.7420 -4.6265 0.8924
-5.7792 29.8437 -5.0078 0.8841
-7.4308 32.2631 -5.4542 0.8744
-11.7414 38.4262 -6.6192 0.8497
3.4019 12.5419 -2.4426 0.9485
3.0686 13.1185 -2.5323 0.9466
2.3286 14.4655 -2.7539 0.9421
0.9160 16.8406 -3.1701 0.9337
-1.7969 20.8391 -3.9315 0.9184
-2.6801 22.0234 -4.1701 0.9137
-3.6732 23.3255 -4.4383 0.9084
-7.5409 28.1814 -5.4834 0.8880
-11.2213 32.5867 -6.4780 0.8691
-13.5668 35.3210 -7.1118 0.8573
-19.8053 42.4097 -8.7978 0.8265
3.1193 11.4999 -2.5187 0.9525
2.8051 11.9919 -2.6033 0.9509
2.4662 12.5066 -2.6945 0.9492
2.1001 13.0459 -2.7931 0.9474
1.7060 13.6305 -2.9037 0.9454
1.2808 14.2833 -3.0313 0.9431
0.8159 14.9997 -3.1753 0.9404
0.3034 15.7577 -3.3315 0.9376
-0.2610 16.4808 -3.4842 0.9348
-0.8820 17.3047 -3.6626 0.9316
-1.5706 18.2142 -3.8644 0.9280
-2.3290 19.1377 -4.0752 0.9242
-3.1652 20.0997 -4.3011 0.9202
-4.0941 21.1417 -4.5520 0.9157
-7.4308 24.3189 -5.3751 0.9013
-9.0902 26.3983 -5.9016 0.8921
-9.3499 22.0032 -5.0535 0.9069
3.1546 10.1995 -2.5092 0.9571
2.5813 11.0352 -2.6635 0.9545
2.2631 11.4767 -2.7492 0.9531
1.5537 12.4137 -2.9403 0.9499
1.1578 12.9124 -3.0469 0.9481
0.7314 13.4469 -3.1650 0.9462
0.2701 14.0270 -3.2973 0.9440
-1.3846 16.0582 -3.7880 0.9359
-2.0380 16.7463 -3.9648 0.9330
-2.7621 17.5402 -4.1732 0.9296
-5.3920 20.1508 -4.9025 0.9179
-6.4515 21.1137 -5.1887 0.9133
-7.6286 22.1537 -5.5067 0.9082
-8.8227 22.9698 -5.7829 0.9038
-12.0780 25.8629 -6.7085 0.8893
2.3887 10.2119 -2.7154 0.9576
2.0892 10.5950 -2.7961 0.9564
1.4268 11.3991 -2.9745 0.9536
0.6669 12.2602 -3.1791 0.9505
-0.2090 13.1951 -3.4169 0.9469
-0.6988 13.7104 -3.5545 0.9449
-1.2299 14.2641 -3.7069 0.9426
-1.8099 14.8722 -3.8791 0.9400
-2.4431 15.5144 -4.0665 0.9372
-3.8653 16.7824 -4.4590 0.9313
-5.5801 18.2667 -4.9451 0.9241
-7.6241 19.8492 -5.5054 0.9159
-8.7924 20.6913 -5.8210 0.9113
-10.0823 21.5894 -6.1694 0.9062
2.7365 8.8476 -2.6218 0.9622
2.4867 9.1675 -2.6890 0.9613
2.2210 9.4951 -2.7606 0.9603
1.9386 9.8308 -2.8366 0.9592
0.9766 10.8915 -3.0957 0.9556
-0.1166 7.3604 -2.0839 0.9699
-1.6218 13.3250 -3.8001 0.9457
-2.1725 13.7962 -3.9537 0.9436
-2.7683 14.2957 -4.1222 0.9413
-4.8884 15.9984 -4.7358 0.9328
-5.6988 16.5492 -4.9550 0.9298
-6.5775 17.1244 -5.1931 0.9266
-7.5534 17.7756 -5.4676 0.9228
2.5634 8.2880 -2.6684 0.9643
2.3256 8.5738 -2.7324 0.9635
0.5662 10.4086 -3.2062 0.9573
-0.1161 7.3315 -2.2553 0.9698
-0.5818 11.4143 -3.5153 0.9533
-2.4921 12.8692 -4.0318 0.9466
-3.0555 13.2667 -4.1874 0.9446
-5.0091 14.5466 -4.7321 0.9376
-5.7697 15.0213 -4.9493 0.9349
-6.5904 15.5093 -5.1832 0.9319
2.4089 7.7885 -2.7100 0.9662
1.9429 8.3059 -2.8355 0.9647
1.1402 9.1094 -3.0516 0.9620
0.5257 9.6640 -3.2171 0.9600
-0.1163 7.3451 -2.4418 0.9695
-0.9330 10.8198 -3.6099 0.9553
-1.3531 11.1182 -3.7230 0.9539
-1.7984 11.4203 -3.8430 0.9524
-2.2707 11.7258 -3.9701 0.9509
-2.7718 12.0345 -4.1051 0.9493
-5.1196 13.3289 -4.7462 0.9416
-5.8057 13.6627 -4.9346 0.9393
2.2701 7.3396 -2.7474 0.9679
2.0538 7.5718 -2.8056 0.9672
1.0667 8.5223 -3.0714 0.9642
0.1782 9.2561 -3.3107 0.9614
-0.1505 9.5042 -3.3992 0.9604
-1.6549 10.5087 -3.8043 0.9558
-3.0145 11.2657 -4.1705 0.9517
-3.5189 11.5163 -4.3063 0.9501
-4.0512 11.7648 -4.4496 0.9485
-5.8393 12.5039 -4.9351 0.9431
2.1842 7.0618 -2.8327 0.9688
1.9379 7.1445 -2.8368 0.9688
1.7208 7.3566 -2.8953 0.9682
0.7365 8.2139 -3.1603 0.9653
0.4585 8.4297 -3.2352 0.9645
-0.1404 8.8619 -3.3965 0.9627
-1.1570 9.5073 -3.6702 0.9598
-2.3354 10.1400 -3.9876 0.9564
-2.7683 10.3457 -4.1042 0.9552
-3.7002 10.7452 -4.3551 0.9525
1.9030 7.0156 -2.9751 0.9691
1.6384 7.0043 -2.9441 0.9694
1.4084 7.1422 -2.9794 0.9690
0.4303 7.9115 -3.2428 0.9663
-0.4322 8.4797 -3.4751 0.9640
-0.7472 8.6659 -3.5599 0.9631
-1.0770 8.8497 -3.6487 0.9622
-1.7832 9.2086 -3.8389 0.9603
-2.1610 9.3826 -3.9406 0.9592
-2.5560 9.5521 -4.0470 0.9582
-4.3214 10.1697 -4.5224 0.9534
-4.8121 10.3043 -4.6545 0.9520
1.1169 6.9383 -3.0628 0.9698
0.8889 7.1019 -3.1193 0.9693
0.6523 7.2744 -3.1830 0.9686
0.1395 7.2479 -3.1594 0.9689
-0.1233 7.7818 -3.3919 0.9666
-0.6992 8.1085 -3.5470 0.9651
-1.0061 8.2673 -3.6296 0.9643
-2.3707 8.8598 -3.9971 0.9608
-2.7482 8.9942 -4.0987 0.9598
-3.5497 9.2417 -4.3146 0.9577
-3.9744 9.3530 -4.4289 0.9566
-4.4153 9.4546 -4.5477 0.9555
1.1030 6.8519 -3.2125 0.9699
0.8615 6.8830 -3.2109 0.9699
0.6162 6.8720 -3.1937 0.9700
0.3820 7.0233 -3.2558 0.9695
0.1381 7.1742 -3.3215 0.9689
-0.6561 7.6094 -3.5354 0.9669
-1.2410 7.8808 -3.6929 0.9654
-1.5510 8.0095 -3.7763 0.9647
-1.8731 8.1327 -3.8631 0.9639
-2.2076 8.2500 -3.9531 0.9631
-2.5546 8.3605 -4.0466 0.9622
-2.9145 8.4637 -4.1435 0.9613
-3.2874 8.5588 -4.2439 0.9604
-4.0728 8.7212 -4.4554 0.9585
1.8226 5.8928 -3.0257 0.9729
1.4513 6.2046 -3.1257 0.9720
1.0476 6.5076 -3.2332 0.9711
0.8325 6.6514 -3.2881 0.9706
0.1308 6.7908 -3.3317 0.9702
-0.1094 6.9063 -3.3881 0.9697
-1.4534 7.5056 -3.7501 0.9665
-1.7527 7.6101 -3.8307 0.9658
-2.0626 7.7083 -3.9141 0.9651
-3.7739 8.0811 -4.3749 0.9610
1.7365 5.6146 -3.0489 0.9739
0.9952 6.1822 -3.2485 0.9722
0.3576 6.5752 -3.4161 0.9708
0.1289 6.6971 -3.4750 0.9703
-0.3419 6.7068 -3.4839 0.9702
-0.5821 6.7513 -3.5154 0.9699
-0.8345 6.8567 -3.5834 0.9694
-1.0956 6.9571 -3.6537 0.9688
-1.3656 7.0520 -3.7264 0.9681
-1.6447 7.1409 -3.8016 0.9675
-1.9328 7.2233 -3.8792 0.9669
-2.2301 7.2987 -3.9592 0.9662
-2.5366 7.3664 -4.0418 0.9655
-2.8522 7.4258 -4.1268 0.9648
-3.5105 7.5171 -4.3040 0.9633
1.6565 5.3557 -3.0704 0.9748
1.4891 5.4899 -3.1155 0.9744
1.3151 5.6221 -3.1624 0.9740
1.1343 5.7520 -3.2111 0.9736
0.9465 5.8794 -3.2616 0.9732
0.1224 6.3573 -3.4826 0.9714
-0.8056 6.6200 -3.6526 0.9700
-1.8159 6.7863 -3.8477 0.9685
-2.3771 6.9032 -3.9988 0.9673
-2.6694 6.9497 -4.0775 0.9666
-2.9692 6.9875 -4.1582 0.9660
1.0808 5.4811 -3.2254 0.9745
0.9012 5.5983 -3.2738 0.9741
0.7150 5.7127 -3.3240 0.9738
0.5222 5.8238 -3.3759 0.9734
0.3226 5.9315 -3.4296 0.9729
-0.0972 6.1353 -3.5427 0.9721
-0.5447 6.3176 -3.6610 0.9711
-0.7788 6.3994 -3.7219 0.9707
-1.0197 6.4756 -3.7848 0.9702
-1.4948 6.4902 -3.8453 0.9697
-1.9682 6.4414 -3.8887 0.9694
-2.2332 6.4853 -3.9601 0.9688
-2.5048 6.5212 -4.0332 0.9682
-2.7827 6.5486 -4.1080 0.9677
