ply
format ascii 1.0
element vertex 218
property float32 x
property float32 y
property float32 z
property float32 I
end_header
-0.7161 6.0034 0.7873 0.9759
-12.5347 29.6045 1.9936 0.8791
-14.1412 36.9744 1.5609 0.8534
-14.8025 31.7931 1.3829 0.8690
-16.1311 29.0984 1.3119 0.8753
-16.9596 44.3435 0.8020 0.8270
-17.1746 40.5631 0.7441 0.8384
-17.5162 34.4007 0.6521 0.8569
-17.6537 31.8449 0.6150 0.8644
-17.7742 29.5572 0.5826 0.8711
-20.9007 41.0477 -0.2593 0.8317
-20.8361 37.5856 -0.2420 0.8421
-20.7327 31.8783 -0.2141 0.8589
-22.0184 29.1399 -0.2056 0.8641
-25.0127 41.5942 -1.3667 0.8235
-24.3749 34.7375 -1.1949 0.8438
-24.1214 31.9230 -1.1266 0.8521
4.2285 45.5274 -2.3188 0.8327
-28.9954 38.3735 -2.4392 0.8248
2.8197 30.3591 -2.2356 0.8849
0.9647 43.5172 -3.1916 0.8398
-0.6495 49.7111 -3.6453 0.8192
-8.5258 24.8853 -1.9288 0.8999
2.6347 28.3667 -2.7351 0.8918
0.7491 33.7923 -3.2450 0.8730
-0.4868 37.2793 -3.5793 0.8609
-0.3554 7.3557 -0.7070 0.9708
-0.6122 7.3138 -0.7046 0.9709
-8.3918 24.4941 -2.4857 0.9012
2.2168 23.8681 -2.8474 0.9080
1.4721 25.6232 -3.0487 0.9018
0.6122 27.6160 -3.2812 0.8947
-0.6116 7.3066 -0.8710 0.9709
-4.7058 39.4479 -4.7191 0.8521
1.9121 20.5879 -2.9297 0.9199
-0.6110 7.2994 -1.0379 0.9708
-3.7221 31.2020 -4.4523 0.8808
-5.2721 33.9738 -4.8713 0.8703
-7.1328 37.2536 -5.3743 0.8579
1.6768 18.0541 -2.9870 0.9291
-0.2791 21.3745 -3.5215 0.9170
-3.0752 25.7789 -4.2769 0.9001
-5.6884 29.7094 -4.9832 0.8846
-11.6165 38.2500 -6.5855 0.8504
-14.4778 42.2582 -7.3588 0.8344
1.4823 15.9592 -3.0126 0.9368
-0.2439 18.6830 -3.5120 0.9268
-3.6062 23.2385 -4.4202 0.9087
-7.4589 28.0814 -5.4612 0.8885
-13.4629 35.2008 -7.0838 0.8578
-16.2649 38.4146 -7.8410 0.8438
0.3480 15.6996 -3.3194 0.9378
-0.2144 16.4219 -3.4716 0.9351
-2.2754 19.0752 -4.0607 0.9245
-3.1092 20.0360 -4.2859 0.9204
-5.0691 22.2093 -4.8153 0.9111
-6.2284 23.4489 -5.1285 0.9056
-9.0197 26.3271 -5.8826 0.8925
-8.9706 23.4551 -5.3082 0.9024
-11.3295 24.3337 -5.6738 0.8961
-12.3752 24.3042 -5.7650 0.8945
-20.7852 37.4936 -9.0618 0.8392
0.7698 13.3985 -3.1541 0.9463
-1.9920 16.6984 -3.9523 0.9332
-2.7137 17.4875 -4.1592 0.9299
-3.5433 18.3457 -4.3980 0.9261
-7.5734 22.1056 -5.4918 0.9085
-8.8862 23.2344 -5.8464 0.9028
-12.0197 25.8162 -6.6928 0.8896
-13.9046 27.3079 -7.2021 0.8817
1.0944 11.7830 -3.0640 0.9523
0.7021 12.2215 -3.1696 0.9507
0.2810 12.6766 -3.2830 0.9490
-0.1718 13.1555 -3.4065 0.9471
-1.1918 14.2221 -3.6956 0.9427
-2.4010 15.4723 -4.0540 0.9374
-6.5173 19.0230 -5.2064 0.9203
-8.7472 20.6593 -5.8088 0.9115
-10.0375 21.5588 -6.1573 0.9064
-9.3594 18.3813 -5.3407 0.9183
-13.0579 23.5546 -6.9732 0.8947
-14.8344 24.6684 -7.4530 0.8879
-19.0754 27.1850 -8.5986 0.8718
-21.6244 28.6184 -9.2873 0.8623
1.0085 10.8581 -3.0871 0.9557
0.6453 11.2318 -3.1849 0.9543
-0.1569 12.0124 -3.4009 0.9513
-0.6002 12.4206 -3.5203 0.9496
-1.5858 13.2940 -3.7901 0.9459
-4.0855 15.3809 -4.5052 0.9360
-4.8508 15.9723 -4.7256 0.9330
-6.5394 17.0983 -5.1823 0.9267
-7.5116 17.7508 -5.4559 0.9230
-9.8146 15.0909 -5.0962 0.9279
0.9342 10.0585 -3.1071 0.9586
0.2374 10.7092 -3.2947 0.9562
-0.9825 11.7389 -3.6233 0.9519
-1.4431 12.0974 -3.7473 0.9503
-2.4595 12.8457 -4.0229 0.9467
-4.2755 14.0781 -4.5254 0.9403
-4.9766 14.5257 -4.7227 0.9378
-6.5590 15.4910 -5.1742 0.9320
-7.4471 15.9939 -5.4266 0.9288
-8.3792 16.4562 -5.6800 0.9256
-9.3804 16.9210 -5.9508 0.9222
-9.7215 14.9477 -5.4844 0.9281
-1.3239 11.0980 -3.7152 0.9540
-1.7692 11.4009 -3.8351 0.9525
-2.7428 12.0171 -4.0973 0.9494
-3.8428 12.6534 -4.3958 0.9458
-4.4480 12.9829 -4.5618 0.9438
-5.0925 13.3153 -4.7387 0.9417
-6.5125 13.9878 -5.1289 0.9370
-8.1347 14.6740 -5.5771 0.9317
-9.0381 15.0297 -5.8297 0.9287
0.5164 8.9884 -3.2196 0.9625
0.2048 9.2356 -3.3035 0.9615
-0.0979 7.4930 -2.6798 0.9687
-1.2214 10.2393 -3.6876 0.9571
-2.0575 10.7462 -3.9127 0.9546
-2.5106 10.9998 -4.0348 0.9532
-2.9889 11.2526 -4.1636 0.9517
-5.1862 12.2487 -4.7567 0.9451
-6.4857 12.7374 -5.1115 0.9411
-7.1912 12.9720 -5.3040 0.9389
-7.9364 13.1976 -5.5072 0.9367
-9.5534 13.6148 -5.9478 0.9318
0.7611 8.1943 -3.1537 0.9654
-0.0946 7.2483 -2.7779 0.9694
-0.7765 9.2776 -3.5678 0.9609
-1.1324 9.4928 -3.6636 0.9599
-2.3117 10.1284 -3.9812 0.9565
-3.2004 10.5380 -4.2205 0.9539
-3.6784 10.7366 -4.3492 0.9525
-5.2592 11.2957 -4.7749 0.9480
-5.8384 11.4662 -4.9309 0.9464
-6.4454 11.6265 -5.0943 0.9446
-7.0841 11.7803 -5.2678 0.9428
-7.7540 11.9224 -5.4502 0.9409
-8.4547 12.0490 -5.6408 0.9389
-0.1081 8.2768 -3.3878 0.9649
-2.1393 9.3729 -3.9348 0.9593
-2.9485 9.7085 -4.1527 0.9571
-3.8322 10.0200 -4.3907 0.9547
-4.7956 10.3000 -4.6501 0.9521
-6.9770 10.7278 -5.2375 0.9462
0.1607 7.2510 -3.1609 0.9688
-0.3834 7.9342 -3.4619 0.9659
-0.9849 8.2566 -3.6239 0.9644
-1.3055 8.4125 -3.7102 0.9635
-2.7296 8.9879 -4.0937 0.9598
-3.1233 9.1163 -4.1997 0.9588
-3.5327 9.2370 -4.3100 0.9578
-4.8592 9.5432 -4.6672 0.9543
-5.3347 9.6231 -4.7953 0.9531
-6.8620 9.7793 -5.2066 0.9492
-7.4041 9.7988 -5.3525 0.9478
0.1588 7.1618 -3.3159 0.9689
-0.0955 7.3108 -3.3844 0.9683
-0.6361 7.5994 -3.5300 0.9669
-1.2217 7.8724 -3.6876 0.9655
-1.8547 8.1259 -3.8581 0.9639
-2.1898 8.2440 -3.9483 0.9631
-2.5375 8.3554 -4.0420 0.9622
-4.0594 8.7189 -4.4518 0.9585
-5.3404 8.8807 -4.7968 0.9554
-5.7936 8.9082 -4.9188 0.9542
-6.2594 8.9204 -5.0443 0.9531
0.6297 6.7799 -3.3400 0.9701
0.3915 6.8148 -3.3483 0.9700
-0.0900 6.8960 -3.3829 0.9697
-0.3395 7.0252 -3.4501 0.9691
-0.5985 7.1507 -3.5198 0.9685
-1.1465 7.3881 -3.6674 0.9672
-2.3674 7.7952 -3.9962 0.9644
-2.6995 7.8795 -4.0856 0.9636
-3.0426 7.9555 -4.1780 0.9628
-3.3967 8.0224 -4.2734 0.9619
-3.7617 8.0794 -4.3717 0.9611
-4.5240 8.1606 -4.5769 0.9593
-6.1699 8.1654 -5.0202 0.9554
0.5980 6.4383 -3.3544 0.9713
0.1483 6.6871 -3.4700 0.9703
-1.0786 6.9509 -3.6491 0.9688
-1.6288 7.1361 -3.7973 0.9676
-2.5228 7.3635 -4.0380 0.9655
-2.8392 7.4235 -4.1232 0.9648
-3.1648 7.4746 -4.2109 0.9641
-4.1947 7.5667 -4.4883 0.9618
-5.2985 7.5510 -4.7855 0.9593
0.5679 6.1149 -3.3636 0.9724
0.3582 6.2341 -3.4200 0.9719
0.1407 6.3483 -3.4779 0.9715
-0.0843 6.4554 -3.5360 0.9710
-0.5563 6.6464 -3.6530 0.9700
-0.7899 6.6218 -3.6525 0.9700
-1.0235 6.5953 -3.6555 0.9700
-1.5322 6.7130 -3.7713 0.9691
-1.8016 6.7829 -3.8438 0.9685
-2.0790 6.8457 -3.9185 0.9679
-2.3643 6.9009 -3.9954 0.9673
-2.6573 6.9480 -4.0743 0.9666
-2.9580 6.9862 -4.1552 0.9660
-3.5815 7.0339 -4.3231 0.9646
-4.9085 6.9953 -4.6805 0.9618
-5.2544 6.9538 -4.7736 0.9610
0.3403 5.9223 -3.4249 0.9730
-0.0800 6.1275 -3.5380 0.9721
-0.3007 6.2238 -3.5975 0.9716
-0.5283 6.3116 -3.6567 0.9712
-0.7628 6.3940 -3.7178 0.9707
-1.0042 6.4709 -3.7807 0.9702
-1.7155 6.4586 -3.8582 0.9696
-2.2213 6.4835 -3.9568 0.9688
-2.7723 6.5477 -4.1052 0.9677
-4.2533 6.5397 -4.5040 0.9646
-4.5643 6.5046 -4.5878 0.9640
-4.8790 6.4570 -4.6725 0.9633
