ply
format ascii 1.0
element vertex 134
property float32 x
property float32 y
property float32 z
property float32 I
end_header
-16.2385 -21.8374 -1.3801 0.8967
-16.0775 -21.6209 -2.5867 0.8974
-17.0161 -19.7740 -3.0988 0.9002
-15.9614 -21.4648 -3.1774 0.8979
-23.5613 -36.9032 -5.2009 0.8383
-38.2298 -17.6791 -5.9679 0.8435
-15.8858 -21.3631 -3.7721 0.8980
-38.0822 -17.6108 -6.9120 0.8436
-39.3405 -16.5200 -8.0200 0.8406
-37.9404 -17.5452 -7.8569 0.8436
-39.2307 -16.4739 -8.9941 0.8403
-39.0528 -16.3992 -9.9547 0.8403
-23.2208 -33.6658 -9.6118 0.8453
-20.0581 -31.4163 -8.7601 0.8580
-31.3614 -33.9241 -11.9618 0.8262
-17.9872 -26.0781 -8.2025 0.8773
-36.8398 -29.9298 -13.4371 0.8209
-23.8017 -25.7467 -9.9261 0.8644
-19.1183 -23.8858 -8.6612 0.8806
-14.6473 -21.2358 -7.3030 0.8983
-13.0802 -20.4872 -6.8811 0.9039
-40.9457 -22.5995 -14.3850 0.8222
-39.3597 -23.5891 -14.1139 0.8253
-36.1232 -23.4356 -13.2442 0.8351
-33.0951 -23.1849 -12.4287 0.8444
-30.2872 -22.8665 -11.6726 0.8532
-25.2867 -22.0828 -10.3260 0.8689
-21.0211 -21.1748 -9.1773 0.8826
-19.1310 -20.6943 -8.6683 0.8887
-15.7745 -19.7081 -7.7644 0.8997
-34.0403 -17.2374 -12.6833 0.8514
-29.7401 -17.8238 -11.5252 0.8640
-27.7017 -17.9720 -10.9763 0.8701
-25.7492 -18.0387 -10.4505 0.8759
-23.8871 -18.0345 -9.9491 0.8815
-22.1178 -17.9692 -9.4726 0.8868
-18.8575 -17.6896 -8.5947 0.8967
-17.3633 -17.4904 -8.1923 0.9013
-12.2198 -16.4331 -6.8072 0.9173
-31.0932 -11.7737 -11.8896 0.8683
-29.6584 -12.4543 -11.5032 0.8723
-26.7308 -13.5360 -10.7149 0.8805
-23.8209 -14.2763 -9.9312 0.8887
-22.4006 -14.5328 -9.5488 0.8928
-17.1131 -14.9448 -8.1249 0.9080
-15.9095 -14.9242 -7.8008 0.9115
-13.6558 -14.7716 -7.1939 0.9181
-11.6062 -14.5004 -6.6419 0.9241
-8.8971 -13.9352 -5.9124 0.9322
-25.0319 -9.4786 -10.2574 0.8917
-21.9425 -11.1113 -9.4254 0.9000
-19.8134 -11.8746 -8.8521 0.9058
-16.6752 -12.5896 -8.0070 0.9144
-15.6666 -12.7281 -7.7354 0.9172
-13.7284 -12.8782 -7.2134 0.9225
-11.0504 -12.8414 -6.4923 0.9300
-9.4295 -12.6808 -6.0558 0.9345
-8.6688 -12.5682 -5.8509 0.9367
-20.1397 -8.4571 -8.9399 0.9099
-19.3610 -8.9533 -8.7302 0.9119
-18.5599 -9.3984 -8.5145 0.9140
-17.7434 -9.7933 -8.2946 0.9161
-15.2610 -10.6912 -7.6262 0.9226
-14.4396 -10.9018 -7.4050 0.9248
-12.8301 -11.2045 -6.9715 0.9290
-10.5403 -11.4016 -6.3549 0.9351
-8.4411 -11.3516 -5.7896 0.9407
-7.1582 -11.2116 -5.4441 0.9441
-17.2892 -7.2602 -8.1723 0.9214
-16.0411 -8.1229 -7.8362 0.9245
-15.3893 -8.4940 -7.6607 0.9262
-14.7255 -8.8253 -7.4820 0.9278
-14.0542 -9.1179 -7.3012 0.9295
-12.7047 -9.5919 -6.9377 0.9329
-11.3685 -9.9280 -6.5779 0.9363
-10.7123 -10.0489 -6.4012 0.9379
-8.2134 -10.2616 -5.7283 0.9443
-7.6268 -10.2564 -5.5703 0.9458
-7.0572 -10.2316 -5.4169 0.9472
-6.5051 -10.1887 -5.2683 0.9486
-15.5826 -5.9005 -7.7128 0.9292
-15.1085 -6.3444 -7.5851 0.9303
-13.0067 -7.7952 -7.0191 0.9353
-12.4489 -8.0765 -6.8689 0.9367
-11.3178 -8.5449 -6.5643 0.9394
-10.7504 -8.7340 -6.4115 0.9408
-9.6242 -9.0282 -6.1082 0.9435
-9.0695 -9.1359 -5.9588 0.9448
-8.5228 -9.2193 -5.8116 0.9462
-7.4588 -9.3188 -5.5251 0.9487
-6.4409 -9.3382 -5.2510 0.9512
-13.7782 -5.2173 -7.2268 0.9365
-13.3846 -5.6205 -7.1209 0.9374
-12.9691 -5.9975 -7.0090 0.9383
-11.6217 -6.9651 -6.6461 0.9414
-11.1486 -7.2329 -6.5187 0.9425
-10.6682 -7.4736 -6.3893 0.9436
-9.6950 -7.8765 -6.1273 0.9459
-9.2067 -8.0401 -5.9958 0.9470
-8.7198 -8.1798 -5.8647 0.9481
-8.2362 -8.2965 -5.7344 0.9492
-7.2845 -8.4652 -5.4782 0.9515
-6.8190 -8.5195 -5.3528 0.9525
-5.9137 -8.5737 -5.1090 0.9547
-11.9864 -5.0334 -6.7443 0.9431
-11.6335 -5.3798 -6.6493 0.9439
-11.2632 -5.7035 -6.5496 0.9447
-10.8781 -6.0041 -6.4459 0.9455
-10.4806 -6.2813 -6.3388 0.9464
-8.8106 -7.1581 -5.8891 0.9501
-6.2693 -7.8327 -5.2048 0.9558
-5.4570 -7.9116 -4.9860 0.9576
-11.1154 -4.2089 -6.5098 0.9472
-10.8285 -4.5472 -6.4325 0.9478
-10.5240 -4.8667 -6.3505 0.9485
-9.8695 -5.4473 -6.1743 0.9499
-8.4332 -6.3670 -5.7875 0.9530
-8.0582 -6.5468 -5.6865 0.9538
-7.6802 -6.7070 -5.5847 0.9546
-6.9206 -6.9713 -5.3802 0.9562
-6.5417 -7.0763 -5.2781 0.9570
-5.7914 -7.2356 -5.0761 0.9586
-5.4218 -7.2913 -4.9766 0.9594
-5.0572 -7.3320 -4.8784 0.9602
-4.6981 -7.3585 -4.7817 0.9610
-9.3063 -4.7125 -6.0226 0.9530
-8.7083 -5.2191 -5.8616 0.9542
-8.3942 -5.4459 -5.7770 0.9548
-7.4096 -6.0198 -5.5118 0.9569
-7.0722 -6.1762 -5.4210 0.9576
-6.7324 -6.3154 -5.3295 0.9583
-6.0502 -6.5446 -5.1458 0.9597
-5.0361 -6.7725 -4.8727 0.9618
-4.7040 -6.8199 -4.7832 0.9625
