ply
format ascii 1.0
element vertex 208
property float32 x
property float32 y
property float32 z
property float32 I
end_header
6.2627 32.7691 5.8826 0.8733
-0.9273 6.7185 1.1959 0.9728
-1.0151 7.3545 1.1374 0.9704
-1.0148 7.3520 0.9665 0.9705
-1.1177 8.0977 0.8778 0.9676
-0.6270 6.1906 0.3858 0.9754
-12.3538 37.4963 2.4481 0.8537
-13.2280 29.0781 1.9810 0.8798
-0.6579 6.4954 0.2574 0.9742
-13.5822 41.2246 1.7115 0.8405
-14.7292 32.3780 1.4026 0.8673
-0.6956 6.8675 0.1166 0.9728
-17.1182 41.5605 0.7593 0.8354
2.4002 15.6044 -0.4446 0.9388
4.8812 41.7448 -2.1314 0.8451
-0.4764 7.3509 -0.3736 0.9709
4.5812 29.7839 -2.2095 0.8862
2.9079 36.1925 -2.6623 0.8645
1.7784 40.4381 -2.9679 0.8501
3.1524 20.4954 -1.9908 0.9201
2.4935 21.3259 -2.0613 0.9173
1.4040 31.9248 -3.0679 0.8795
-0.4754 7.3362 -0.7058 0.9709
3.8167 19.9708 -2.4152 0.9214
2.6653 22.7955 -2.7262 0.9117
1.1590 26.3528 -3.1334 0.8992
0.2204 28.5139 -3.3872 0.8915
-0.8840 31.0159 -3.6858 0.8825
-0.4749 7.3289 -0.8724 0.9708
-0.7379 7.2860 -0.8699 0.9709
-5.7600 41.7315 -5.0041 0.8439
2.7830 18.0936 -2.5938 0.9287
1.6898 21.0325 -2.9897 0.9183
0.1853 23.9682 -3.3961 0.9077
-0.2099 7.3647 -1.0439 0.9707
-0.4745 7.3216 -1.0396 0.9708
-6.2544 35.7109 -5.1369 0.8638
-8.3921 39.4500 -5.7147 0.8496
2.5009 13.0859 -2.1948 0.9474
2.5209 16.3892 -2.7317 0.9350
1.4808 18.4310 -3.0461 0.9278
-0.6251 21.9348 -3.6150 0.9149
-3.6869 26.7121 -4.4423 0.8964
-10.7137 36.9730 -6.3415 0.8555
2.2481 14.6161 -2.7796 0.9416
1.8044 15.4326 -2.9205 0.9387
0.7525 17.1090 -3.2189 0.9327
-0.5446 19.1089 -3.5932 0.9251
-2.1603 21.3295 -4.0296 0.9164
-5.4421 25.5829 -4.9162 0.8990
-8.5054 29.3522 -5.7440 0.8830
-10.4276 31.6499 -6.2635 0.8732
-12.7020 34.3183 -6.8782 0.8616
2.0236 13.1564 -2.8137 0.9470
-1.1440 17.6536 -3.7395 0.9302
-1.8855 18.6169 -3.9554 0.9264
-2.7010 19.5686 -4.1756 0.9224
-3.6078 20.5994 -4.4206 0.9181
-9.9678 24.2005 -5.5324 0.8985
-14.3396 31.5216 -7.3201 0.8680
2.2078 11.5520 -2.7641 0.9528
1.0483 13.0476 -3.0764 0.9476
0.5988 13.6141 -3.2027 0.9455
0.1100 14.2334 -3.3453 0.9432
-1.0140 15.6469 -3.6851 0.9376
-8.4675 22.8779 -5.7333 0.9046
-9.9312 24.1116 -6.1286 0.8984
1.7028 11.0707 -2.9001 0.9548
0.9590 11.9361 -3.1004 0.9517
0.0995 12.8681 -3.3319 0.9482
-0.2090 7.3333 -1.8995 0.9701
-0.9022 13.9215 -3.6121 0.9440
-1.4705 14.5187 -3.7784 0.9415
-2.0927 15.1616 -3.9628 0.9387
-3.5051 16.4768 -4.3616 0.9328
-4.3070 17.1663 -4.5824 0.9295
-5.1991 17.9421 -4.8366 0.9257
-6.1833 18.7676 -5.1162 0.9216
-7.2424 19.5676 -5.4023 0.9174
-9.7024 21.3282 -6.0668 0.9077
1.8897 9.8877 -2.8498 0.9590
1.5758 10.2447 -2.9343 0.9578
1.2408 10.6116 -3.0245 0.9566
0.8829 10.9889 -3.1209 0.9552
0.0910 11.7772 -3.3342 0.9522
-0.8175 12.6154 -3.5788 0.9488
-1.3231 13.0635 -3.7171 0.9469
-2.4583 14.0359 -4.0340 0.9425
-3.1009 14.5770 -4.2190 0.9399
-3.8021 15.1540 -4.4230 0.9371
-5.3825 16.3368 -4.8694 0.9310
-6.2624 16.9197 -5.1074 0.9277
1.7605 9.2116 -2.8846 0.9615
1.4651 9.5250 -2.9641 0.9605
0.4620 10.5051 -3.2343 0.9569
0.0838 10.8460 -3.3361 0.9556
-0.3190 11.1945 -3.4446 0.9542
-1.2068 11.9153 -3.6836 0.9511
-1.6961 12.2881 -3.8154 0.9494
-3.3851 13.4919 -4.2785 0.9434
-4.0342 13.9222 -4.4583 0.9411
-4.7348 14.3709 -4.6539 0.9386
-5.4979 14.8542 -4.8718 0.9359
-6.3239 15.3534 -5.1073 0.9329
-7.2181 15.8669 -5.3616 0.9296
1.6464 8.6144 -2.9153 0.9637
1.0725 9.1728 -3.0698 0.9618
0.7599 9.4580 -3.1540 0.9608
0.4287 9.7474 -3.2432 0.9597
0.0776 10.0409 -3.3378 0.9586
-1.1086 10.9463 -3.6572 0.9547
-1.5536 11.2560 -3.7770 0.9532
-2.0263 11.5695 -3.9043 0.9517
-3.0627 12.2069 -4.1834 0.9483
-3.6321 12.5345 -4.3379 0.9465
-4.2409 12.8720 -4.5050 0.9445
-4.8904 13.2130 -4.6833 0.9423
-6.3245 13.9031 -5.0772 0.9376
1.5447 8.0825 -2.9427 0.9656
0.3994 9.0825 -3.2511 0.9621
0.0570 7.3768 -2.6381 0.9691
-2.3173 10.8933 -3.9827 0.9538
-2.7984 11.1536 -4.1123 0.9523
1.4535 7.6053 -2.9673 0.9674
1.2038 7.8264 -3.0345 0.9666
0.9410 8.0483 -3.1053 0.9659
0.6645 8.2707 -3.1797 0.9651
-0.9504 9.3842 -3.6146 0.9604
-1.3257 9.6049 -3.7157 0.9593
-1.7205 9.8239 -3.8220 0.9582
-2.5728 10.2545 -4.0515 0.9557
-3.0324 10.4648 -4.1753 0.9544
-3.5156 10.6706 -4.3054 0.9530
-5.1185 11.2517 -4.7370 0.9484
1.3712 7.1744 -2.9894 0.9689
1.1341 7.3734 -3.0533 0.9683
0.6243 7.7705 -3.1905 0.9669
0.0561 7.2516 -2.9680 0.9691
-0.2382 8.3597 -3.4228 0.9645
-0.5543 8.5532 -3.5079 0.9636
-1.2330 8.9329 -3.6907 0.9618
-1.5970 9.1183 -3.7887 0.9608
-1.9783 9.3000 -3.8914 0.9597
-2.7960 9.6491 -4.1116 0.9575
-3.6916 9.9741 -4.3528 0.9551
-4.6706 10.2671 -4.6164 0.9524
1.0710 6.9629 -3.0703 0.9697
0.8351 7.1420 -3.1338 0.9691
0.0559 7.2357 -3.1535 0.9689
-0.5191 8.0106 -3.4985 0.9656
-1.1509 8.3387 -3.6686 0.9639
-1.8401 8.6500 -3.8542 0.9621
-2.2073 8.7978 -3.9531 0.9612
-4.2884 9.4268 -4.5135 0.9558
1.2841 6.7190 -3.1664 0.9703
1.0588 6.8835 -3.2237 0.9698
0.5552 6.9106 -3.2092 0.9699
0.3109 7.0682 -3.2750 0.9693
0.0558 7.2196 -3.3419 0.9687
-0.4876 7.5238 -3.4900 0.9673
-0.7767 7.6686 -3.5678 0.9666
-1.3914 7.9445 -3.7334 0.9651
-1.7177 8.0745 -3.8212 0.9643
-2.4096 8.3157 -4.0076 0.9626
-3.1559 8.5266 -4.2085 0.9607
-3.9580 8.7006 -4.4245 0.9587
0.5484 6.8254 -3.3588 0.9700
0.2993 6.8064 -3.3419 0.9701
0.0527 6.8180 -3.3445 0.9701
-0.4591 7.0843 -3.4823 0.9689
-0.7303 7.2111 -3.5553 0.9682
-1.0122 7.3332 -3.6312 0.9676
-1.3048 7.4500 -3.7100 0.9669
-1.6084 7.5609 -3.7918 0.9661
-2.2494 7.7626 -3.9644 0.9646
-2.5870 7.8521 -4.0553 0.9638
-2.9362 7.9331 -4.1494 0.9630
-3.6694 8.0662 -4.3468 0.9613
1.1595 6.0667 -3.2043 0.9726
0.7424 6.3498 -3.3166 0.9716
0.2908 6.6117 -3.4333 0.9706
-0.1916 6.7217 -3.4885 0.9702
-0.6884 6.7967 -3.5440 0.9697
-0.9528 6.9033 -3.6153 0.9691
-1.2267 7.0043 -3.6890 0.9685
-1.5102 7.0992 -3.7653 0.9678
-1.8033 7.1875 -3.8443 0.9672
-2.4188 7.3415 -4.0100 0.9658
-3.4148 7.5065 -4.2783 0.9635
1.1034 5.7734 -3.2194 0.9735
0.9082 5.9045 -3.2719 0.9731
0.0494 6.3927 -3.5014 0.9713
-0.1853 6.5010 -3.5621 0.9708
-0.9121 6.6085 -3.6538 0.9700
-1.4213 6.6816 -3.7414 0.9693
-2.2678 6.8833 -3.9694 0.9675
-2.8735 6.9765 -4.1325 0.9662
1.0513 5.5008 -3.2334 0.9745
0.0469 6.0687 -3.5039 0.9724
-0.1758 6.1702 -3.5639 0.9719
-0.4060 6.2654 -3.6250 0.9714
-1.1403 6.5108 -3.8162 0.9699
-1.6238 6.4719 -3.8523 0.9697
-1.8651 6.4366 -3.8691 0.9695
-2.1315 6.4695 -3.9327 0.9690
-2.4093 6.5096 -4.0075 0.9684
-2.6941 6.5408 -4.0842 0.9679
-2.9855 6.5627 -4.1626 0.9672
