ply
format ascii 1.0
element vertex 155
property float32 x
property float32 y
property float32 z
property float32 I
end_header
-15.5279 -0.0762 0.2623 0.9398
-15.4871 -0.6293 0.2618 0.9399
-15.9454 1.6354 -1.1753 0.9377
-15.8472 1.6253 -1.5294 0.9380
-15.7510 1.6154 -1.8808 0.9382
-15.6586 1.6060 -2.2303 0.9384
-38.2295 -17.6883 -5.9684 0.8435
-15.5504 1.5948 -2.5752 0.9386
-28.8533 -4.2936 -4.8056 0.8885
-28.0735 -5.2080 -4.7037 0.8907
-38.0742 -17.6164 -6.9112 0.8436
-28.6517 -4.2636 -5.4447 0.8888
-15.3896 1.5784 -3.2701 0.9387
-28.5458 -4.2478 -6.1005 0.8887
-27.7784 -5.1533 -5.9720 0.8909
-39.2275 -16.4765 -8.9936 0.8403
-37.7579 -17.4701 -8.7942 0.8436
-37.6266 -17.4093 -9.7438 0.8434
-46.1056 -1.8735 -11.9474 0.8264
-32.8876 -28.7856 -12.3728 0.8339
-29.4725 -27.7158 -11.4532 0.8452
-40.9041 -22.5995 -14.3738 0.8224
-39.3164 -23.5923 -14.1030 0.8254
-36.0649 -23.4317 -13.2285 0.8353
-25.2142 -22.0693 -10.3065 0.8692
-41.1478 -13.9216 -14.4394 0.8327
-34.0208 -17.2411 -12.6780 0.8515
-25.7076 -18.0393 -10.4393 0.8760
-22.0692 -17.9665 -9.4595 0.8870
-20.3904 -17.8471 -9.0074 0.8921
-37.5704 3.8533 -13.5059 0.8518
-38.2331 1.1778 -13.6789 0.8500
-38.2715 -0.1879 -13.6863 0.8499
-38.0960 -1.5480 -13.6347 0.8505
-37.7262 -2.8848 -13.5306 0.8515
-37.1714 -4.1814 -13.3766 0.8531
-35.5723 -6.5991 -12.9380 0.8575
-34.5978 -7.7052 -12.6755 0.8602
-32.3075 -9.6600 -12.0588 0.8665
-28.1907 -13.0435 -11.1080 0.8764
-23.7989 -14.2808 -9.9253 0.8888
-22.3745 -14.5369 -9.5418 0.8928
-20.9846 -14.7251 -9.1675 0.8968
-15.8686 -14.9227 -7.7898 0.9116
-29.3093 1.9519 -11.2567 0.8818
-29.4796 -0.1447 -11.2973 0.8814
-28.4279 -4.2303 -11.0140 0.8842
-26.8383 -4.9788 -10.4604 0.8896
-27.4479 -6.1129 -10.7762 0.8865
-27.7509 -7.2291 -10.9896 0.8844
-26.9070 -8.0452 -10.7623 0.8867
-25.0327 -9.4780 -10.2576 0.8917
-24.0265 -10.0918 -9.9866 0.8944
-22.9898 -10.6370 -9.7074 0.8972
-21.9331 -11.1153 -9.4229 0.9000
-19.7971 -11.8795 -8.8477 0.9058
-16.6497 -12.5937 -8.0001 0.9145
-15.6385 -12.7313 -7.7278 0.9172
-14.6529 -12.8253 -7.4624 0.9200
-23.8388 1.5876 -9.7782 0.9019
-23.9923 -0.1178 -9.8196 0.9015
-23.5587 -2.6501 -9.7028 0.9026
-24.2826 -3.6134 -10.0477 0.8993
-23.4416 -5.2206 -9.8291 0.9014
-21.6035 -7.3092 -9.3341 0.9061
-20.8895 -7.9093 -9.1418 0.9080
-19.3565 -8.9560 -8.7290 0.9119
-17.7335 -9.7977 -8.2920 0.9162
-16.9050 -10.1441 -8.0689 0.9183
-12.8052 -11.2081 -6.9648 0.9291
-12.0212 -11.3046 -6.7537 0.9312
-19.8959 2.0405 -8.7164 0.9164
-20.0527 1.3354 -8.7587 0.9160
-20.1440 0.6205 -8.7833 0.9158
-20.9372 -1.6010 -9.1514 0.9124
-20.7739 -2.3369 -9.1107 0.9128
-20.2142 -3.7500 -8.9600 0.9142
-19.4206 -5.0590 -8.7463 0.9162
-18.4308 -6.2358 -8.4798 0.9186
-17.2878 -7.2613 -8.1719 0.9214
-16.6726 -7.7142 -8.0063 0.9230
-15.3814 -8.4982 -7.6586 0.9262
-14.7153 -8.8301 -7.4792 0.9279
-14.0417 -9.1230 -7.2978 0.9295
-12.0145 -9.7811 -6.7519 0.9346
-10.6897 -10.0526 -6.3952 0.9380
-17.1341 1.7573 -7.9727 0.9269
-18.1285 -0.7367 -8.3983 0.9231
-17.8944 -2.0130 -8.3353 0.9237
-17.6983 -2.6336 -8.2825 0.9242
-17.4523 -3.2376 -8.2162 0.9247
-17.1591 -3.8215 -8.1373 0.9254
-16.8220 -4.3821 -8.0465 0.9262
-16.0300 -5.4235 -7.8332 0.9281
-15.1073 -6.3455 -7.5848 0.9303
-14.6070 -6.7585 -7.4500 0.9315
-14.0862 -7.1386 -7.3098 0.9328
-13.5487 -7.4857 -7.1650 0.9340
-12.9983 -7.7998 -7.0168 0.9354
-12.4384 -8.0814 -6.8661 0.9367
-11.8726 -8.3311 -6.7137 0.9381
-9.6048 -9.0324 -6.1030 0.9435
-15.8173 1.0534 -7.7760 0.9318
-15.8783 0.4891 -7.7924 0.9317
-15.8660 -0.6447 -7.7891 0.9317
-13.7785 -5.2169 -7.2269 0.9365
-13.3837 -5.6215 -7.1206 0.9374
-12.9667 -5.9995 -7.0083 0.9383
-12.5309 -6.3504 -6.8909 0.9393
-12.0791 -6.6737 -6.7693 0.9404
-11.6145 -6.9694 -6.6442 0.9414
-11.1397 -7.2376 -6.5163 0.9425
-10.1707 -7.6930 -6.2554 0.9448
-9.1913 -8.0449 -5.9916 0.9470
-8.7030 -8.1842 -5.8601 0.9482
-14.0302 0.9344 -7.2947 0.9386
-14.0945 -0.0692 -7.3120 0.9385
-13.7793 -2.0505 -7.2271 0.9392
-13.4116 -2.9869 -7.1281 0.9400
-11.9856 -5.0343 -6.7441 0.9431
-11.6314 -5.3817 -6.6487 0.9439
-11.2599 -5.7063 -6.5487 0.9447
-10.8734 -6.0076 -6.4446 0.9456
-9.6483 -6.7703 -6.1147 0.9483
-8.7986 -7.1630 -5.8859 0.9502
-8.3698 -7.3259 -5.7704 0.9511
-12.5015 1.2822 -6.8830 0.9443
-12.5757 0.8375 -6.9030 0.9441
-12.6187 0.3887 -6.9146 0.9440
-12.6302 -0.0620 -6.9177 0.9440
-12.6100 -0.5124 -6.9123 0.9441
-12.5584 -0.9603 -6.8984 0.9442
-12.4757 -1.4034 -6.8761 0.9444
-12.3627 -1.8397 -6.8457 0.9446
-12.2203 -2.2671 -6.8073 0.9449
-11.6297 -3.4773 -6.6483 0.9461
-10.8278 -4.5480 -6.4323 0.9478
-10.5222 -4.8685 -6.3500 0.9485
-8.7955 -6.1719 -5.8851 0.9522
-8.0476 -6.5516 -5.6836 0.9538
-7.6683 -6.7118 -5.5815 0.9546
-7.2873 -6.8530 -5.4789 0.9554
-11.3039 1.1593 -6.5605 0.9489
-11.4049 0.3513 -6.5877 0.9487
-11.3974 -0.4632 -6.5857 0.9487
-11.3529 -0.8681 -6.5737 0.9488
-11.1842 -1.6643 -6.5283 0.9491
-10.9139 -2.4306 -6.4555 0.9497
-10.7431 -2.7986 -6.4095 0.9500
-10.3363 -3.4971 -6.3000 0.9508
-9.5853 -4.4350 -6.0977 0.9524
-9.0093 -4.9776 -5.9426 0.9536
-8.7036 -5.2227 -5.8603 0.9542
-7.4002 -6.0245 -5.5093 0.9569
-7.0615 -6.1808 -5.4181 0.9576
