ply
format ascii 1.0
element vertex 205
property float32 x
property float32 y
property float32 z
property float32 I
end_header
-5.4263 -13.8412 2.6214 0.9414
-5.0482 -14.3684 1.9832 0.9404
-4.7041 -15.0935 1.6977 0.9384
-4.3752 -16.0348 1.7848 0.9353
-4.3209 -15.8360 1.3896 0.9362
-4.9129 -13.9833 0.9191 0.9423
-4.2932 -15.7342 1.0114 0.9367
-4.8720 -13.8668 0.5795 0.9429
-4.7727 -13.5841 -0.0811 0.9440
-4.4849 -14.3901 -0.0849 0.9415
-4.1606 -15.2483 -0.0890 0.9387
-17.5778 -19.5973 -1.3351 0.8999
-17.0744 -20.4627 -1.3516 0.8988
-16.5347 -21.3213 -1.3683 0.8976
-4.6941 -13.3605 -0.7182 0.9449
-4.3974 -14.1097 -0.7495 0.9425
-16.4673 -21.2342 -1.9703 0.8978
-16.8922 -20.2444 -2.5313 0.8995
-3.9962 -14.6460 -1.4575 0.9408
-6.9916 -43.5676 -5.2414 0.8372
-16.6931 -20.0058 -3.6918 0.9001
-24.6102 -36.9056 -6.2851 0.8359
-12.4868 -45.7637 -6.7213 0.8256
-7.2631 -36.7986 -5.3146 0.8594
-14.7510 -41.9846 -7.3310 0.8349
-11.8110 -37.8967 -6.5393 0.8514
-5.7762 -29.2653 -4.9142 0.8861
-20.0818 -42.0954 -8.7665 0.8271
-6.0735 -25.8670 -4.9942 0.8975
-4.7886 -24.2616 -4.6482 0.9042
-3.6628 -22.8247 -4.3450 0.9102
-21.1704 -37.2661 -9.0597 0.8393
-17.8945 -34.2988 -8.1775 0.8537
-15.1536 -31.7651 -7.4394 0.8660
-10.8397 -27.6498 -6.2777 0.8857
-9.1170 -25.9490 -5.8138 0.8936
-7.6140 -24.4302 -5.4090 0.9007
-5.1242 -21.8238 -4.7386 0.9124
-26.4361 -36.7282 -10.6355 0.8303
-21.7636 -32.6367 -9.2194 0.8511
-16.2636 -28.6286 -7.7383 0.8735
-14.0643 -26.9575 -7.1461 0.8826
-12.1448 -25.4579 -6.6291 0.8906
-10.4576 -24.1023 -6.1748 0.8977
-8.9654 -22.8688 -5.7730 0.9040
-7.6382 -21.7399 -5.4156 0.9097
-5.3864 -19.7409 -4.8092 0.9194
-3.4365 -14.6359 -3.5333 0.9401
-3.5563 -18.0180 -4.3163 0.9273
-29.6802 -33.0902 -11.5091 0.8322
-19.3114 -26.8298 -8.5591 0.8723
-17.0150 -25.5158 -7.9406 0.8810
-14.9834 -24.3089 -7.3936 0.8887
-11.5630 -22.1632 -6.4725 0.9019
-10.1150 -21.2031 -6.0825 0.9075
-8.8107 -20.3066 -5.7313 0.9126
-7.6317 -19.4669 -5.4138 0.9172
-4.7019 -17.2323 -4.6248 0.9289
-3.4222 -14.5752 -3.8764 0.9400
-2.4609 -15.3353 -4.0214 0.9378
-35.2326 -29.4759 -13.0043 0.8262
-28.2813 -27.3232 -11.1324 0.8492
-22.7331 -25.3450 -9.6383 0.8680
-20.3765 -24.4200 -9.0037 0.8761
-9.7997 -18.7834 -5.9976 0.9157
-8.6520 -18.1363 -5.6886 0.9199
-7.5998 -17.5159 -5.4052 0.9237
-5.7439 -16.3483 -4.9054 0.9305
-4.9237 -15.7984 -4.6846 0.9335
-3.4268 -14.5949 -4.2441 0.9396
-34.9131 -23.3468 -12.9183 0.8388
-24.3582 -21.9049 -10.0759 0.8719
-22.2020 -21.4499 -9.4953 0.8788
-20.2125 -20.9754 -8.9595 0.8852
-18.3766 -20.4880 -8.4652 0.8912
-16.6821 -19.9926 -8.0088 0.8968
-13.6411 -18.9519 -7.1822 0.9069
-10.5986 -17.1950 -6.2128 0.9189
-6.6712 -15.3756 -5.1552 0.9323
-5.8573 -14.9408 -4.9360 0.9350
-4.3937 -14.0977 -4.5419 0.9401
-2.0979 -13.0730 -4.0724 0.9461
-26.9281 -18.0072 -10.7680 0.8724
-18.2289 -17.6114 -8.4254 0.8987
-14.0916 -16.8880 -7.3112 0.9115
-11.7327 -16.3006 -6.6760 0.9188
-9.6551 -15.6642 -6.1165 0.9254
-7.8214 -14.9915 -5.6207 0.9312
-6.9889 -14.6502 -5.3956 0.9339
-6.2092 -14.3107 -5.1854 0.9364
-5.4779 -13.9731 -4.9889 0.9387
-3.5395 -12.9722 -4.4697 0.9449
-21.8544 -14.6143 -9.4017 0.8943
-19.1422 -14.8845 -8.6713 0.9021
-17.8539 -14.9367 -8.3244 0.9058
-15.4267 -14.9041 -7.6708 0.9129
-13.2059 -14.7231 -7.0727 0.9194
-12.1728 -14.5884 -6.7945 0.9225
-11.1900 -14.4294 -6.5299 0.9254
-10.2564 -14.2495 -6.2785 0.9281
-7.7339 -13.6139 -5.5992 0.9357
-6.9796 -13.3781 -5.3960 0.9379
-4.9494 -12.6250 -4.8493 0.9440
-2.7151 -11.5635 -4.2476 0.9508
-2.2292 -11.2942 -4.1168 0.9523
-18.3423 -12.2657 -8.4559 0.9098
-17.2960 -12.4832 -8.1741 0.9127
-16.2691 -12.6505 -7.8976 0.9155
-15.2658 -12.7715 -7.6274 0.9183
-14.2893 -12.8501 -7.3645 0.9210
-11.5431 -12.8694 -6.6250 0.9286
-10.6931 -12.8151 -6.3960 0.9310
-9.0937 -12.6340 -5.9653 0.9355
-8.3440 -12.5127 -5.7635 0.9376
-3.9654 -11.2864 -4.5843 0.9500
-3.4521 -11.0766 -4.4461 0.9515
-2.9637 -10.8618 -4.3146 0.9529
-2.4989 -10.6428 -4.1894 0.9542
-1.6361 -10.1955 -3.9571 0.9567
-15.7647 -10.5421 -7.7618 0.9213
-14.1138 -10.9745 -7.3172 0.9256
-13.3037 -11.1300 -7.0991 0.9278
-10.9706 -11.3848 -6.4708 0.9339
-10.2324 -11.4080 -6.2720 0.9359
-9.5162 -11.4046 -6.0791 0.9378
-6.8855 -11.1709 -5.3707 0.9449
-6.2874 -11.0677 -5.2096 0.9465
-5.7130 -10.9503 -5.0550 0.9480
-5.1618 -10.8202 -4.9065 0.9495
-3.6425 -10.3674 -4.4974 0.9536
-3.1789 -10.1997 -4.3725 0.9549
-2.7354 -10.0254 -4.2531 0.9561
-1.9067 -9.6602 -4.0299 0.9583
-13.1124 -9.4639 -7.0475 0.9319
-12.4357 -9.6697 -6.8653 0.9336
-10.4441 -10.0903 -6.3290 0.9386
-9.8011 -10.1710 -6.1558 0.9402
-7.9581 -10.2619 -5.6596 0.9449
-6.2650 -10.1642 -5.2036 0.9492
-5.2258 -10.0165 -4.9238 0.9519
-4.2591 -9.8163 -4.6634 0.9544
-1.7748 -8.9919 -3.9944 0.9608
-1.4172 -8.8315 -3.8981 0.9617
-12.2290 -8.1777 -6.8097 0.9372
-11.0908 -8.6240 -6.5032 0.9400
-9.9551 -8.9525 -6.1973 0.9427
-9.3940 -9.0758 -6.0462 0.9441
-7.7591 -9.2989 -5.6060 0.9480
-7.2349 -9.3293 -5.4648 0.9493
-6.7228 -9.3403 -5.3269 0.9505
-4.8077 -9.2151 -4.8112 0.9552
-3.5203 -8.9796 -4.4645 0.9584
-2.7336 -8.7711 -4.2526 0.9603
-9.4974 -7.9456 -6.0741 0.9463
-8.5194 -8.2308 -5.8107 0.9486
-8.0354 -8.3387 -5.6803 0.9497
-7.5567 -8.4250 -5.5515 0.9508
-7.0848 -8.4907 -5.4244 0.9519
-4.8585 -8.5525 -4.8249 0.9571
-4.4446 -8.5192 -4.7134 0.9581
-3.6513 -8.4154 -4.4998 0.9600
-2.5495 -8.1804 -4.2031 0.9625
-2.2058 -8.0843 -4.1105 0.9634
-8.6379 -7.2266 -5.8426 0.9505
-8.2083 -7.3816 -5.7269 0.9515
-7.3513 -7.6288 -5.4961 0.9534
-6.9268 -7.7227 -5.3818 0.9543
-6.5066 -7.7979 -5.2687 0.9553
-5.6832 -7.8958 -5.0469 0.9571
-4.8880 -7.9303 -4.8328 0.9589
-4.5027 -7.9260 -4.7290 0.9598
-4.1261 -7.9086 -4.6276 0.9606
-3.7586 -7.8789 -4.5287 0.9614
-3.0523 -7.7859 -4.3385 0.9630
-2.7139 -7.7243 -4.2473 0.9638
-9.0262 -6.0359 -5.9472 0.9517
-8.6578 -6.2487 -5.8480 0.9525
-7.9056 -6.6139 -5.6454 0.9541
-7.5250 -6.7671 -5.5429 0.9549
-7.1434 -6.9014 -5.4401 0.9557
-6.7621 -7.0173 -5.3375 0.9565
-6.3822 -7.1155 -5.2352 0.9573
-5.6313 -7.2615 -5.0330 0.9590
-4.8982 -7.3454 -4.8355 0.9605
-4.5402 -7.3659 -4.7391 0.9613
-4.1886 -7.3732 -4.6444 0.9621
-3.1774 -7.3231 -4.3721 0.9642
-2.5426 -7.2369 -4.2012 0.9656
-2.2377 -7.1801 -4.1191 0.9663
-1.9413 -7.1149 -4.0393 0.9669
-1.3741 -6.9618 -3.8865 0.9682
-7.6104 -5.9177 -5.5659 0.9564
-6.9335 -6.2351 -5.3836 0.9578
-6.5914 -6.3681 -5.2915 0.9586
-6.2487 -6.4846 -5.1992 0.9593
-5.5652 -6.6696 -5.0152 0.9607
-4.2315 -6.8651 -4.6560 0.9634
-3.9091 -6.8812 -4.5692 0.9641
-3.5923 -6.8855 -4.4839 0.9648
-3.2815 -6.8787 -4.4002 0.9654
-2.6792 -6.8340 -4.2380 0.9667
-2.3882 -6.7973 -4.1596 0.9673
-1.5584 -6.6371 -3.9362 0.9690
-1.2965 -6.5688 -3.8656 0.9695
-1.0421 -6.4937 -3.7971 0.9701
