ply
format ascii 1.0
element vertex 262
property float32 x
property float32 y
property float32 z
property float32 I
end_header
-1.2209 7.8363 1.3984 0.9683
-0.7381 6.1971 0.6702 0.9752
2.0332 15.1365 1.2928 0.9405
-12.3361 35.4809 2.3294 0.8602
-12.6012 29.2622 1.9757 0.8801
-13.7850 29.0818 1.9957 0.8790
-13.3118 43.2482 1.7843 0.8343
-14.1978 36.5382 1.5457 0.8548
-14.8583 31.3460 1.3678 0.8703
-15.1282 29.1547 1.2951 0.8768
-16.9945 43.7353 0.7926 0.8289
-17.8751 29.1112 0.5770 0.8723
-20.8221 36.8212 -0.2382 0.8443
-20.7675 33.8218 -0.2235 0.8532
-20.9165 29.1326 -0.2019 0.8664
-22.5576 29.1435 -0.2075 0.8629
2.8715 46.6309 -1.3155 0.8295
-24.9169 40.5794 -1.3409 0.8265
-24.5804 36.9766 -1.2503 0.8372
-24.2931 33.8355 -1.1729 0.8465
5.2963 39.4297 -2.0176 0.8527
2.5412 41.2659 -2.0967 0.8474
-0.6080 7.3492 -0.3740 0.9709
-8.6883 24.9893 -1.3417 0.8995
2.9654 30.3135 -2.2333 0.8850
2.3567 38.2707 -2.8114 0.8575
1.0962 43.0082 -3.1546 0.8415
-0.3429 7.3651 -0.5406 0.9709
-8.5205 24.5066 -1.9024 0.9012
2.7408 20.4051 -1.9766 0.9206
2.7437 28.0476 -2.7056 0.8929
0.8540 33.4941 -3.2167 0.8740
-0.6051 7.3150 -0.7047 0.9709
-6.8764 44.1358 -5.3060 0.8353
-0.2611 24.8184 -3.5167 0.9046
-0.3419 7.3432 -1.0416 0.9707
-0.6039 7.3005 -1.0379 0.9708
-3.7148 31.1888 -4.4504 0.8808
-5.3012 34.0254 -4.8792 0.8701
-7.2140 37.3958 -5.3963 0.8574
-9.5619 41.4767 -6.0310 0.8420
-9.9651 13.8795 -2.4210 0.9333
2.2682 16.8859 -2.8068 0.9333
1.7487 17.9080 -2.9650 0.9297
-0.3445 7.3989 -1.2202 0.9704
-1.9942 24.1063 -3.9848 0.9066
-3.0694 25.7700 -4.2753 0.9001
-5.7483 29.7981 -4.9994 0.8842
-7.4414 32.2786 -5.4570 0.8743
-9.4572 35.1836 -6.0019 0.8627
-11.8937 38.6409 -6.6604 0.8488
-9.9097 13.8022 -2.7991 0.9334
2.0200 15.0388 -2.8521 0.9401
0.4532 17.6019 -3.3084 0.9308
-0.1957 18.6143 -3.4989 0.9270
-0.3418 7.3403 -1.3812 0.9705
-2.6125 21.9334 -4.1518 0.9140
-7.5917 28.2435 -5.4971 0.8878
-11.4047 32.8023 -6.5276 0.8682
-13.8535 35.6521 -7.1893 0.8558
-16.8083 39.0321 -7.9878 0.8412
0.9144 14.8495 -3.1448 0.9410
0.3984 15.6265 -3.3042 0.9381
-2.2714 19.0704 -4.0596 0.9245
-3.1243 20.0532 -4.2900 0.9204
-5.1369 22.2827 -4.8337 0.9107
-10.4402 24.2442 -5.5797 0.8977
-11.4744 24.2072 -5.6627 0.8963
-21.6397 38.2671 -9.2927 0.8355
1.6507 12.2891 -2.9142 0.9503
0.8211 13.3336 -3.1397 0.9466
0.3549 13.9201 -3.2726 0.9444
-0.7112 15.2746 -3.5938 0.9391
-1.3229 15.9921 -3.7714 0.9362
-2.7268 17.5017 -4.1629 0.9298
-4.4403 19.2606 -4.6454 0.9220
-7.7343 22.2457 -5.5352 0.9078
-9.2231 21.4177 -5.4805 0.9086
-12.3698 26.0963 -6.7873 0.8881
-14.3497 27.6544 -7.3223 0.8798
-16.6218 29.3935 -7.9362 0.8704
-19.2506 31.3515 -8.6465 0.8597
-22.3208 33.5773 -9.4760 0.8473
-25.9454 36.1368 -10.4553 0.8329
1.5169 11.2929 -2.9502 0.9540
0.7494 12.1695 -3.1569 0.9509
0.3221 12.6328 -3.2719 0.9491
-0.1380 13.1194 -3.3970 0.9472
-0.6353 13.6443 -3.5366 0.9451
-1.7659 14.8267 -3.8660 0.9402
-3.8699 16.7863 -4.4603 0.9313
-4.7091 17.5193 -4.6971 0.9278
-6.6485 19.1225 -5.2419 0.9198
-7.7482 19.9401 -5.5389 0.9154
-11.7998 22.7402 -6.6333 0.8996
-15.3358 24.9759 -7.5885 0.8859
-17.4407 26.2363 -8.1570 0.8779
-19.8246 27.6119 -8.8011 0.8690
-25.6539 30.7865 -10.3759 0.8474
-29.2498 32.6370 -11.3474 0.8344
1.4019 10.4369 -2.9811 0.9572
0.2953 11.5795 -3.2792 0.9530
-0.1260 11.9834 -3.3926 0.9514
-0.5773 12.4000 -3.5141 0.9497
-1.5831 13.2916 -3.7893 0.9459
-2.1460 13.7738 -3.9463 0.9437
-2.7557 14.2850 -4.1186 0.9413
-6.6816 17.1951 -5.2224 0.9262
-7.6942 17.8674 -5.5072 0.9223
-8.8040 18.5731 -5.8188 0.9181
-9.3028 17.9282 -5.7179 0.9195
-11.2983 19.9796 -6.4978 0.9090
-12.7202 20.7161 -6.8819 0.9039
-16.0069 22.2944 -7.7697 0.8922
-11.7451 15.1741 -5.4321 0.9233
-20.0223 24.0282 -8.8543 0.8781
-22.3684 24.9588 -9.4880 0.8699
0.9796 10.0142 -3.0949 0.9588
0.2723 10.6779 -3.2853 0.9563
-0.0773 7.3519 -2.2614 0.9697
-0.9703 11.7291 -3.6200 0.9519
-1.4406 12.0955 -3.7466 0.9503
-4.3475 14.1242 -4.5455 0.9400
-5.8577 15.0748 -4.9744 0.9346
-6.7080 15.5773 -5.2166 0.9315
-7.6261 16.0884 -5.4762 0.9282
-8.5913 16.5569 -5.7373 0.9249
-9.6325 17.0339 -6.0190 0.9214
-9.3274 15.1906 -5.4828 0.9281
-11.5877 16.1394 -6.1111 0.9202
-11.6061 14.9946 -5.8321 0.9237
1.2142 9.0393 -3.0317 0.9623
-1.3217 11.0964 -3.7146 0.9540
-1.7771 11.4062 -3.8372 0.9525
-3.9055 12.6884 -4.4130 0.9456
-4.5287 13.0256 -4.5840 0.9435
-5.9034 13.7088 -4.9614 0.9390
-6.6618 14.0542 -5.1699 0.9365
-7.4732 14.4022 -5.3935 0.9339
-9.2856 15.1225 -5.8988 0.9279
-9.1384 13.7470 -5.4871 0.9328
-0.4527 9.7224 -3.4806 0.9595
-1.6354 10.4969 -3.7991 0.9559
-2.0750 10.7562 -3.9174 0.9545
-3.5492 11.5308 -4.3144 0.9500
-7.3667 13.0271 -5.3519 0.9384
-9.8176 13.6740 -6.0198 0.9310
1.0670 7.9432 -3.0714 0.9663
0.7987 8.1642 -3.1436 0.9655
0.5164 8.3856 -3.2196 0.9647
0.2195 8.6074 -3.2996 0.9638
-0.4214 9.0507 -3.4722 0.9619
-1.5129 9.7103 -3.7661 0.9588
-1.9150 9.9270 -3.8744 0.9576
-2.3379 10.1412 -3.9883 0.9564
-2.7826 10.3523 -4.1080 0.9551
-3.2502 10.5594 -4.2339 0.9538
-4.8007 11.1481 -4.6515 0.9493
-5.3704 11.3298 -4.8049 0.9477
-6.5955 11.6634 -5.1348 0.9442
-7.2572 11.8190 -5.3149 0.9423
-7.9506 11.9601 -5.5037 0.9403
-8.6764 12.0845 -5.7010 0.9383
-10.2271 12.2733 -6.1222 0.9339
-11.0522 12.3321 -6.3461 0.9315
0.7509 7.6757 -3.1565 0.9672
0.1854 7.2706 -2.9766 0.9691
-0.0869 8.2631 -3.3821 0.9649
-0.3937 8.4563 -3.4647 0.9641
-0.7154 8.6475 -3.5513 0.9632
-1.4057 9.0224 -3.7372 0.9613
-1.7757 9.2050 -3.8369 0.9603
-2.1633 9.3836 -3.9412 0.9592
-2.9936 9.7258 -4.1648 0.9570
-3.4378 9.8877 -4.2844 0.9558
-4.3875 10.1887 -4.5402 0.9532
-5.4232 10.4514 -4.8191 0.9504
-5.9745 10.5651 -4.9675 0.9489
-6.5487 10.6651 -5.1222 0.9473
-7.1459 10.7498 -5.2830 0.9457
-8.4101 10.8654 -5.6234 0.9423
-9.7675 10.8986 -5.9898 0.9387
-0.3690 7.9260 -3.4580 0.9660
-0.6694 8.0926 -3.5389 0.9652
-0.9833 8.2558 -3.6235 0.9644
-1.3111 8.4152 -3.7117 0.9635
-2.3826 8.8642 -4.0003 0.9607
-3.1751 9.1323 -4.2137 0.9587
-4.9615 9.5617 -4.6948 0.9541
-5.4516 9.6405 -4.8267 0.9528
-5.9593 9.7053 -4.9634 0.9515
-6.4845 9.7547 -5.1049 0.9502
-7.0270 9.7872 -5.2510 0.9488
-7.5863 9.8012 -5.4016 0.9474
-8.1620 9.7950 -5.5566 0.9459
0.9251 6.8870 -3.2165 0.9698
0.6721 6.8708 -3.1956 0.9700
0.1823 7.1476 -3.3096 0.9690
-0.6283 7.5955 -3.5279 0.9670
-1.2269 7.8747 -3.6891 0.9655
-1.8750 8.1334 -3.8636 0.9639
-2.5753 8.3668 -4.0522 0.9621
-3.7275 8.6560 -4.3625 0.9593
-4.1394 8.7327 -4.4734 0.9583
-4.5652 8.7979 -4.5880 0.9573
-5.0049 8.8505 -4.7064 0.9562
-7.9164 8.8331 -5.4905 0.9491
0.8885 6.6147 -3.2738 0.9707
-0.3268 7.0189 -3.4467 0.9692
-0.5913 7.1473 -3.5179 0.9686
-0.8660 7.2712 -3.5919 0.9679
-1.1514 7.3900 -3.6687 0.9672
-1.4475 7.5034 -3.7485 0.9665
-2.0728 7.7113 -3.9168 0.9650
-2.7431 7.8898 -4.0974 0.9635
-3.0955 7.9662 -4.1922 0.9626
-3.4592 8.0330 -4.2902 0.9618
-3.8344 8.0894 -4.3912 0.9609
-4.2209 8.1344 -4.4953 0.9600
0.4033 6.5499 -3.4044 0.9709
0.1702 6.6757 -3.4643 0.9704
-0.8158 6.8492 -3.5784 0.9694
-1.0832 6.9525 -3.6504 0.9688
-1.3600 7.0501 -3.7249 0.9682
-2.5630 7.3717 -4.0489 0.9654
-2.8878 7.4318 -4.1363 0.9647
-5.0293 7.5657 -4.7130 0.9599
-5.4153 7.5425 -4.8170 0.9590
-6.2071 7.4490 -5.0302 0.9572
0.5965 6.0980 -3.3559 0.9724
0.1616 6.3380 -3.4725 0.9715
-0.3051 6.5532 -3.5931 0.9705
-0.5499 6.6471 -3.6531 0.9700
-0.7887 6.6219 -3.6525 0.9700
-1.2808 6.6396 -3.7036 0.9696
-1.5486 6.7175 -3.7757 0.9690
-1.8247 6.7884 -3.8500 0.9684
-2.1090 6.8520 -3.9266 0.9678
-2.7023 6.9543 -4.0864 0.9665
-3.0109 6.9919 -4.1695 0.9659
-3.9823 7.0423 -4.4311 0.9638
-4.3202 7.0359 -4.5221 0.9630
-4.6644 7.0167 -4.6148 0.9623
-5.0144 6.9840 -4.7090 0.9615
-5.3694 6.9370 -4.8046 0.9608
-5.7288 6.8749 -4.9014 0.9600
-6.0916 6.7971 -4.9991 0.9592
0.7635 5.6836 -3.3109 0.9739
0.5672 5.7985 -3.3638 0.9734
-0.0644 6.1204 -3.5338 0.9721
-0.2896 6.2191 -3.5945 0.9717
-0.5219 6.3092 -3.6551 0.9712
-1.2584 6.5232 -3.8356 0.9698
-1.4962 6.4901 -3.8453 0.9697
-1.7353 6.4557 -3.8595 0.9696
-2.2560 6.4886 -3.9662 0.9688
-3.1138 6.5691 -4.1972 0.9670
-3.4125 6.5764 -4.2776 0.9664
-3.7169 6.5729 -4.3596 0.9657
-4.0267 6.5580 -4.4430 0.9651
-4.9835 6.4384 -4.7007 0.9631
-5.6375 6.2903 -4.8768 0.9617
